-3.567 -3.567 -3.467 -3.454 -3.787 -4.431 -4.837 -4.548 -3.855 -3.324 -3.095 -3.023 -3.004 -3.015 -3.099 -3.341 -3.746 -4.184 -4.538 -4.854 -5.128 -5.236 -5.232 -5.157 -4.913 -4.775 -5.230 -6.397 -8.122 -10.143 -12.064 -13.735 -15.327 -16.825 -18.131 -19.377 -20.579 -21.524 -22.341 -23.585 -25.438 -27.329 -28.562 -29.039 -29.176 -29.407 -29.908 -30.507 -31.155 -32.155 -33.554 -34.897 -35.753 -36.279 -37.127 -38.633 -40.482 -42.279 -43.887 -45.395 -46.822 -47.880 -48.534 -49.171 -49.936 -50.654 -51.201 -51.447 -51.190 -50.836 -51.161 -51.845 -52.026 -51.708 -51.357 -51.307 -51.589 -51.944 -52.375 -53.104 -54.050 -54.927 -55.525 -55.831 -55.966 -55.954 -55.763 -55.483 -55.214 -54.915 -54.527 -54.097 -53.686 -53.242 -52.724 -52.203 -51.673 -51.061 -50.434 -50.038 -49.990 -49.991 -49.702 -48.947 -47.641 -46.079 -44.707 -43.420 -41.794 -39.779 -37.578 -35.266 -33.002 -31.032 -29.202 -27.219 -25.299 -23.675 -22.169 -20.832 -19.926 -19.244 -18.362 -17.230 -16.045 -14.966 -14.102 -13.516 -13.339 -13.924 -15.389 -17.219 -18.815 -19.907 -20.373 -20.483 -21.080 -22.880 -26.299 -31.877 -39.021 -45.384 -49.308 -51.060 -51.531 -51.545 -51.651 -52.111 -53.279 -55.168 -57.174 -58.866 -60.599 -63.044 -65.962 -68.552 -71.309 -74.909 -78.206 -80.114 -80.978 -81.294 -81.344 -81.421 -81.245 -79.860 -77.014 -73.923 -71.961 -71.512 -72.068 -73.000 -74.183 -75.618 -77.356 -79.731 -82.517 -84.873 -86.295 -86.613 -86.570 -87.749 -89.772 -90.424 -89.707 -89.315 -89.037 -88.190 -87.446 -87.254 -87.633 -88.407 -88.735 -88.137 -87.384 -87.585 -88.942 -90.588 -91.586 -91.718 -91.107 -89.906 -88.583 -87.662 -87.175 -86.830 -86.543 -86.559 -86.959 -87.300 -86.862 -85.368 -83.549 -82.340 -81.660 -80.861 -80.010 -79.420 -78.606 -77.144 -75.457 -73.792 -71.476 -68.257 -65.406 -63.894 -62.942 -61.336 -58.708 -55.719 -53.401 -51.985 -50.474 -47.702 -43.987 -40.701 -38.219 -35.760 -33.092 -30.636 -28.147 -25.467 -23.250 -21.680 -20.788 -21.186 -22.180 -21.703 -19.008 -15.027 -11.000 -7.745 -5.437 -3.983 -3.318 -3.348 -3.979 -5.038 -6.199 -7.189 -7.960 -8.567 -9.052 -9.432 -9.720 -9.925 -10.061 -10.151 -10.244 -10.421 -10.778 -11.394 -12.299 -13.469 -14.847 -16.392 -18.113 -20.086 -22.396 -25.042 -27.826 -30.362 -32.270 -33.382 -33.674 -33.178 -31.939 -29.956 -27.505 -25.655 -25.655
-3.422 -3.422 -3.389 -3.375 -3.469 -3.748 -4.079 -4.174 -3.968 -3.644 -3.353 -3.150 -3.046 -3.012 -3.021 -3.091 -3.286 -3.687 -4.281 -4.860 -5.117 -4.968 -4.726 -4.585 -4.337 -4.034 -4.169 -5.004 -6.451 -8.333 -10.344 -12.269 -14.208 -16.182 -17.983 -19.409 -20.281 -20.610 -21.013 -22.231 -24.165 -26.096 -27.512 -28.407 -29.008 -29.480 -30.007 -30.742 -31.784 -33.111 -34.450 -35.539 -36.334 -37.034 -38.086 -39.642 -41.293 -42.889 -44.633 -46.359 -47.763 -48.723 -49.323 -49.894 -50.532 -50.918 -50.825 -50.490 -50.128 -49.784 -49.915 -50.693 -51.439 -51.558 -51.092 -50.587 -50.538 -50.858 -51.316 -51.820 -52.200 -52.443 -52.661 -52.796 -52.797 -52.645 -52.287 -51.829 -51.382 -50.836 -50.141 -49.466 -48.970 -48.597 -48.226 -47.890 -47.620 -47.389 -47.260 -47.314 -47.476 -47.456 -46.960 -45.862 -44.305 -42.714 -41.308 -39.780 -37.859 -35.745 -33.628 -31.404 -29.172 -27.187 -25.313 -23.392 -21.641 -20.114 -18.624 -17.385 -16.778 -16.415 -15.527 -14.104 -12.649 -11.442 -10.532 -9.900 -9.683 -10.226 -11.637 -13.540 -15.514 -17.309 -18.617 -19.302 -19.788 -20.841 -23.482 -28.848 -36.599 -44.180 -49.243 -51.607 -52.324 -52.481 -52.783 -53.527 -54.925 -56.962 -59.200 -61.084 -62.773 -65.139 -68.109 -70.756 -73.308 -76.374 -79.120 -80.654 -81.238 -81.166 -80.600 -80.138 -79.852 -78.734 -76.440 -74.036 -72.548 -72.249 -72.994 -74.485 -76.275 -77.801 -79.046 -80.655 -82.726 -84.638 -85.784 -85.927 -86.122 -87.933 -90.393 -90.783 -89.456 -88.968 -89.079 -88.504 -87.755 -87.420 -87.800 -88.830 -89.606 -89.715 -89.500 -89.481 -90.121 -91.140 -91.819 -91.886 -91.467 -90.904 -90.460 -90.088 -89.599 -88.784 -87.913 -87.945 -89.201 -90.560 -90.677 -89.262 -87.126 -85.266 -83.783 -82.306 -81.193 -80.764 -80.272 -79.019 -77.273 -75.019 -70.906 -64.854 -60.176 -59.658 -61.596 -62.342 -60.640 -57.811 -55.371 -53.613 -51.665 -48.650 -45.010 -41.993 -39.925 -38.016 -35.677 -32.860 -29.533 -26.089 -23.272 -21.188 -20.111 -20.910 -22.499 -22.241 -19.473 -15.410 -11.309 -7.968 -5.584 -4.062 -3.308 -3.187 -3.630 -4.588 -5.813 -6.977 -7.942 -8.728 -9.374 -9.901 -10.323 -10.649 -10.886 -11.039 -11.124 -11.178 -11.268 -11.488 -11.926 -12.644 -13.652 -14.917 -16.386 -18.029 -19.869 -21.962 -24.264 -26.574 -28.737 -30.773 -32.640 -34.144 -35.001 -34.793 -33.465 -32.084 -32.084
-3.536 -3.536 -3.691 -3.726 -3.537 -3.396 -3.533 -3.846 -4.099 -4.115 -3.870 -3.514 -3.229 -3.075 -3.018 -3.014 -3.080 -3.313 -3.758 -4.216 -4.350 -4.106 -3.865 -3.877 -3.857 -3.620 -3.579 -4.150 -5.352 -6.999 -8.809 -10.655 -12.743 -15.155 -17.450 -19.073 -19.856 -20.084 -20.442 -21.523 -23.335 -25.443 -27.252 -28.515 -29.425 -30.085 -30.618 -31.459 -32.844 -34.382 -35.559 -36.371 -37.068 -37.778 -38.659 -39.764 -40.878 -42.090 -43.700 -45.479 -47.066 -48.294 -49.046 -49.495 -49.850 -49.925 -49.436 -48.698 -48.276 -48.169 -48.335 -48.901 -49.615 -49.991 -49.777 -49.272 -49.054 -49.241 -49.508 -49.546 -49.238 -48.839 -48.688 -48.704 -48.645 -48.371 -47.847 -47.269 -46.786 -46.260 -45.602 -44.975 -44.593 -44.450 -44.389 -44.381 -44.436 -44.509 -44.588 -44.686 -44.726 -44.447 -43.568 -42.147 -40.588 -39.166 -37.695 -35.883 -33.827 -31.847 -29.922 -27.783 -25.480 -23.242 -21.143 -19.303 -17.729 -16.156 -14.559 -13.393 -13.013 -12.921 -12.223 -10.856 -9.414 -8.279 -7.509 -7.036 -6.908 -7.348 -8.452 -10.052 -11.999 -14.200 -16.281 -17.732 -18.537 -19.286 -21.229 -26.037 -33.963 -42.549 -48.698 -51.577 -52.485 -52.924 -53.600 -54.625 -56.045 -57.897 -60.000 -61.961 -63.915 -66.575 -69.750 -72.484 -74.734 -77.024 -79.085 -80.389 -80.900 -80.569 -79.573 -78.824 -78.558 -77.748 -76.111 -74.536 -73.607 -73.530 -74.507 -76.261 -78.048 -79.332 -80.186 -81.072 -82.227 -83.466 -84.278 -84.389 -84.643 -86.086 -88.070 -88.665 -87.832 -87.516 -87.910 -88.052 -87.968 -87.787 -87.813 -88.228 -88.515 -88.619 -88.853 -89.291 -89.991 -90.655 -90.968 -90.906 -90.533 -90.419 -90.877 -91.203 -90.787 -89.708 -88.607 -88.670 -90.432 -92.744 -93.878 -93.122 -91.108 -88.833 -86.522 -84.216 -82.678 -82.166 -81.751 -80.665 -78.968 -76.007 -69.535 -59.766 -52.108 -51.492 -56.387 -60.950 -61.622 -59.541 -57.166 -55.322 -53.246 -50.048 -46.263 -43.320 -41.543 -40.060 -38.027 -34.870 -30.618 -26.426 -23.314 -21.065 -19.915 -20.861 -22.645 -22.428 -19.560 -15.380 -11.241 -7.919 -5.552 -4.043 -3.288 -3.107 -3.399 -4.197 -5.382 -6.649 -7.790 -8.767 -9.599 -10.299 -10.883 -11.361 -11.736 -12.009 -12.182 -12.267 -12.292 -12.305 -12.383 -12.614 -13.078 -13.821 -14.843 -16.098 -17.523 -19.024 -20.415 -21.594 -22.900 -24.871 -27.638 -30.934 -34.300 -36.976 -38.330 -38.631 -38.631
-4.137 -4.137 -4.295 -4.183 -3.708 -3.281 -3.215 -3.485 -3.931 -4.309 -4.372 -4.094 -3.670 -3.314 -3.109 -3.027 -3.021 -3.098 -3.278 -3.477 -3.523 -3.386 -3.306 -3.466 -3.609 -3.468 -3.354 -3.748 -4.741 -6.142 -7.710 -9.352 -11.279 -13.662 -16.098 -17.979 -19.169 -19.918 -20.580 -21.534 -23.175 -25.419 -27.426 -28.764 -29.836 -30.836 -31.751 -32.856 -34.214 -35.429 -36.221 -36.757 -37.249 -37.720 -38.237 -38.873 -39.606 -40.632 -42.188 -44.064 -45.860 -47.243 -47.915 -47.906 -47.643 -47.385 -46.889 -46.119 -45.597 -45.618 -45.999 -46.513 -47.060 -47.529 -47.700 -47.554 -47.399 -47.389 -47.270 -46.770 -45.951 -45.216 -44.936 -44.991 -44.980 -44.644 -44.035 -43.450 -43.044 -42.700 -42.319 -41.971 -41.799 -41.794 -41.836 -41.911 -42.029 -42.127 -42.120 -41.964 -41.646 -40.980 -39.799 -38.347 -36.937 -35.537 -33.926 -32.053 -30.115 -28.229 -26.227 -23.940 -21.445 -18.944 -16.771 -15.234 -14.011 -12.499 -10.841 -9.705 -9.443 -9.681 -9.566 -8.681 -7.388 -6.262 -5.601 -5.330 -5.282 -5.517 -6.195 -7.342 -8.993 -11.165 -13.475 -15.353 -16.671 -17.701 -19.388 -23.589 -31.262 -40.466 -47.661 -51.220 -52.386 -52.997 -53.829 -54.879 -56.108 -57.606 -59.440 -61.633 -64.373 -67.795 -71.319 -74.068 -75.923 -77.405 -78.800 -79.969 -80.572 -80.113 -78.705 -77.576 -77.354 -77.136 -76.361 -75.460 -74.884 -75.100 -76.338 -77.990 -79.341 -80.288 -80.962 -81.554 -82.263 -82.978 -83.383 -83.496 -83.720 -84.290 -85.092 -85.495 -85.147 -84.947 -85.588 -86.692 -87.617 -87.882 -87.643 -87.307 -86.870 -86.563 -86.767 -87.422 -88.190 -88.662 -88.876 -89.039 -88.987 -89.135 -89.995 -90.792 -90.655 -89.797 -88.911 -88.835 -90.204 -92.551 -94.427 -94.730 -93.727 -92.193 -89.967 -87.086 -84.856 -83.829 -82.975 -81.562 -79.830 -76.882 -69.803 -58.495 -48.916 -47.377 -53.526 -60.710 -63.379 -62.060 -59.731 -57.488 -54.961 -51.719 -48.143 -45.305 -43.462 -41.926 -39.955 -36.594 -31.619 -26.663 -23.259 -21.145 -20.207 -21.182 -22.929 -22.755 -19.828 -15.451 -11.177 -7.830 -5.483 -4.002 -3.268 -3.065 -3.238 -3.850 -4.918 -6.214 -7.492 -8.655 -9.689 -10.592 -11.372 -12.034 -12.584 -13.018 -13.339 -13.549 -13.657 -13.679 -13.644 -13.603 -13.629 -13.798 -14.174 -14.767 -15.520 -16.241 -16.603 -16.598 -16.918 -18.345 -21.059 -24.866 -29.493 -34.349 -38.496 -40.924 -40.924
-4.790 -4.790 -4.676 -4.247 -3.629 -3.190 -3.070 -3.198 -3.545 -4.045 -4.471 -4.571 -4.299 -3.839 -3.422 -3.161 -3.046 -3.024 -3.052 -3.095 -3.107 -3.075 -3.099 -3.284 -3.486 -3.454 -3.361 -3.676 -4.551 -5.782 -7.164 -8.572 -10.066 -11.880 -14.029 -16.205 -18.102 -19.587 -20.739 -21.904 -23.589 -25.658 -27.294 -28.538 -30.064 -31.727 -33.125 -34.216 -34.952 -35.359 -35.682 -36.081 -36.475 -36.783 -37.097 -37.512 -38.160 -39.366 -41.258 -43.324 -44.819 -45.535 -45.635 -45.154 -44.378 -43.840 -43.489 -42.994 -42.609 -42.813 -43.541 -44.312 -44.846 -45.212 -45.481 -45.584 -45.530 -45.368 -44.957 -44.137 -43.064 -42.197 -41.906 -42.054 -42.149 -41.836 -41.217 -40.684 -40.388 -40.185 -39.982 -39.832 -39.811 -39.865 -39.907 -39.927 -39.909 -39.816 -39.508 -38.887 -38.118 -37.202 -36.014 -34.719 -33.378 -31.885 -30.257 -28.543 -26.721 -24.637 -22.214 -19.637 -17.079 -14.678 -12.851 -11.927 -11.292 -10.044 -8.374 -7.148 -6.870 -7.421 -8.028 -7.823 -6.756 -5.567 -4.918 -4.795 -4.810 -4.847 -5.100 -5.761 -7.005 -8.834 -10.826 -12.660 -14.437 -16.047 -17.803 -21.427 -28.466 -37.826 -46.074 -50.814 -52.660 -53.419 -54.159 -55.081 -56.078 -57.304 -59.181 -61.977 -65.626 -69.649 -73.166 -75.512 -76.866 -77.878 -78.943 -80.037 -80.665 -80.021 -78.169 -76.598 -76.362 -76.779 -76.901 -76.598 -76.294 -76.735 -78.034 -79.363 -80.263 -80.918 -81.437 -81.923 -82.518 -83.014 -83.119 -83.040 -82.995 -82.556 -81.495 -80.150 -78.898 -78.589 -80.110 -82.937 -85.543 -86.892 -87.014 -86.550 -85.951 -85.457 -85.276 -85.370 -85.450 -85.209 -84.842 -84.887 -85.396 -86.313 -87.679 -88.798 -89.062 -89.011 -89.004 -88.750 -88.600 -89.312 -90.693 -91.859 -92.781 -93.694 -93.314 -90.847 -87.843 -85.161 -81.899 -78.492 -76.818 -76.195 -72.506 -63.911 -54.978 -52.346 -57.224 -63.958 -66.954 -66.117 -63.767 -60.751 -57.148 -53.367 -49.996 -47.398 -45.245 -43.278 -41.355 -38.210 -32.985 -27.306 -23.268 -21.138 -20.632 -21.854 -23.589 -23.414 -20.393 -15.768 -11.286 -7.853 -5.484 -4.000 -3.267 -3.045 -3.120 -3.541 -4.425 -5.662 -7.014 -8.340 -9.588 -10.728 -11.743 -12.634 -13.400 -14.042 -14.560 -14.959 -15.243 -15.415 -15.484 -15.460 -15.368 -15.253 -15.156 -15.051 -14.824 -14.327 -13.526 -12.783 -12.787 -13.976 -16.311 -19.642 -23.904 -28.900 -33.907 -37.285 -37.285
-4.836 -4.836 -4.461 -3.868 -3.349 -3.083 -3.017 -3.055 -3.219 -3.581 -4.111 -4.597 -4.773 -4.544 -4.057 -3.563 -3.228 -3.068 -3.015 -3.007 -3.007 -3.007 -3.055 -3.230 -3.450 -3.479 -3.413 -3.727 -4.603 -5.778 -7.007 -8.186 -9.287 -10.484 -12.128 -14.343 -16.756 -18.853 -20.527 -22.137 -24.028 -25.843 -27.077 -28.331 -30.195 -32.066 -33.387 -34.072 -34.091 -33.831 -33.942 -34.516 -35.094 -35.451 -35.739 -36.112 -36.855 -38.387 -40.467 -41.944 -41.962 -41.133 -40.595 -40.391 -40.085 -39.870 -39.949 -40.052 -40.123 -40.598 -41.680 -42.873 -43.551 -43.702 -43.700 -43.648 -43.450 -43.104 -42.575 -41.744 -40.688 -39.793 -39.385 -39.411 -39.509 -39.290 -38.762 -38.340 -38.222 -38.192 -38.076 -37.964 -37.961 -37.991 -37.944 -37.810 -37.605 -37.296 -36.663 -35.563 -34.379 -33.369 -32.285 -31.026 -29.609 -28.044 -26.433 -24.809 -23.018 -20.764 -18.033 -15.291 -12.915 -11.051 -10.002 -9.874 -9.816 -8.813 -7.108 -5.708 -5.280 -5.886 -6.865 -7.207 -6.582 -5.643 -5.122 -5.036 -5.037 -5.013 -5.057 -5.317 -6.087 -7.450 -8.963 -10.473 -12.318 -14.249 -16.145 -19.444 -25.893 -35.147 -44.258 -50.313 -53.101 -54.209 -55.045 -56.101 -57.217 -58.585 -60.858 -64.221 -68.219 -72.122 -75.081 -76.733 -77.662 -78.593 -79.628 -80.562 -80.906 -79.923 -77.829 -76.144 -75.903 -76.539 -77.116 -77.302 -77.232 -77.614 -78.700 -79.704 -80.318 -80.827 -81.276 -81.673 -82.041 -82.221 -82.044 -81.488 -80.161 -77.282 -73.051 -68.871 -66.029 -65.623 -68.444 -73.591 -78.875 -82.618 -84.402 -84.950 -85.106 -85.029 -84.590 -83.762 -82.645 -81.156 -79.200 -77.733 -78.129 -80.302 -82.809 -84.163 -84.440 -85.362 -87.137 -87.752 -86.370 -84.491 -83.776 -84.648 -87.174 -90.988 -93.903 -93.931 -91.312 -85.991 -77.810 -70.339 -68.643 -72.421 -75.392 -72.660 -66.477 -63.168 -65.284 -69.253 -71.061 -70.327 -68.157 -64.812 -60.134 -54.863 -50.848 -48.683 -46.727 -44.297 -42.120 -39.255 -34.310 -28.442 -23.906 -21.598 -21.398 -22.864 -24.537 -24.228 -21.056 -16.214 -11.541 -8.000 -5.575 -4.049 -3.286 -3.039 -3.048 -3.289 -3.921 -4.973 -6.288 -7.712 -9.159 -10.561 -11.869 -13.060 -14.121 -15.041 -15.825 -16.483 -17.024 -17.453 -17.774 -17.991 -18.116 -18.179 -18.107 -17.570 -16.234 -14.292 -12.491 -11.596 -11.940 -13.403 -15.714 -18.713 -22.341 -26.526 -30.808 -33.773 -33.773
-4.192 -4.192 -3.840 -3.403 -3.121 -3.020 -3.002 -3.010 -3.059 -3.227 -3.603 -4.179 -4.758 -5.037 -4.842 -4.297 -3.708 -3.296 -3.090 -3.018 -3.002 -3.006 -3.079 -3.289 -3.495 -3.471 -3.404 -3.785 -4.730 -5.911 -7.048 -8.095 -9.045 -9.979 -11.286 -13.309 -15.793 -18.140 -20.107 -21.965 -23.935 -25.665 -26.955 -28.323 -29.879 -31.125 -31.954 -32.348 -32.171 -31.834 -32.087 -32.961 -33.754 -34.140 -34.361 -34.653 -35.365 -36.768 -38.017 -37.606 -35.420 -33.185 -32.565 -33.513 -34.909 -36.128 -37.226 -38.154 -38.799 -39.522 -40.778 -42.213 -42.917 -42.692 -42.129 -41.605 -41.083 -40.528 -39.945 -39.227 -38.358 -37.521 -36.930 -36.722 -36.781 -36.729 -36.421 -36.180 -36.249 -36.417 -36.410 -36.272 -36.139 -35.965 -35.644 -35.208 -34.747 -34.211 -33.331 -31.959 -30.504 -29.319 -28.144 -26.747 -25.165 -23.467 -21.778 -20.190 -18.573 -16.561 -14.042 -11.496 -9.474 -8.238 -7.917 -8.287 -8.468 -7.675 -6.164 -4.815 -4.276 -4.669 -5.512 -6.059 -6.015 -5.730 -5.551 -5.411 -5.257 -5.229 -5.306 -5.433 -5.916 -6.979 -8.204 -9.343 -10.757 -12.440 -14.416 -17.842 -24.165 -33.333 -42.912 -49.837 -53.354 -54.943 -56.240 -57.870 -59.648 -61.691 -64.469 -67.844 -71.239 -74.216 -76.356 -77.552 -78.378 -79.325 -80.205 -80.730 -80.613 -79.479 -77.725 -76.480 -76.289 -76.660 -77.125 -77.511 -77.453 -77.461 -78.155 -78.817 -79.135 -79.517 -79.921 -80.135 -79.997 -79.570 -79.028 -77.593 -73.590 -66.717 -59.074 -53.007 -49.495 -49.113 -52.419 -58.699 -66.048 -72.579 -77.243 -80.222 -82.145 -82.971 -82.215 -80.039 -77.641 -75.406 -72.141 -68.657 -68.135 -71.011 -74.106 -74.781 -74.126 -75.534 -79.552 -82.956 -83.013 -80.128 -77.035 -76.246 -78.669 -83.831 -89.773 -93.861 -93.823 -87.495 -75.410 -64.134 -61.733 -68.807 -77.366 -79.829 -76.610 -73.265 -72.909 -74.041 -74.371 -73.443 -71.599 -68.586 -63.469 -56.625 -51.114 -48.844 -47.570 -45.127 -42.328 -39.465 -35.194 -29.831 -25.477 -23.352 -23.296 -24.551 -25.727 -24.982 -21.541 -16.531 -11.748 -8.138 -5.667 -4.101 -3.306 -3.041 -3.014 -3.119 -3.480 -4.226 -5.332 -6.693 -8.218 -9.819 -11.418 -12.964 -14.406 -15.697 -16.843 -17.871 -18.807 -19.673 -20.486 -21.250 -22.009 -22.800 -23.213 -22.276 -19.634 -16.462 -14.358 -13.967 -15.062 -17.225 -21.782 -23.704 -22.885 -31.878 -35.764 -38.260 -34.632
-3.453 -3.453 -3.293 -3.117 -3.025 -3.002 -3.000 -3.001 -3.010 -3.061 -3.236 -3.640 -4.289 -4.976 -5.329 -5.126 -4.508 -3.833 -3.353 -3.108 -3.021 -3.011 -3.100 -3.325 -3.488 -3.413 -3.414 -3.944 -4.997 -6.215 -7.355 -8.409 -9.428 -10.506 -11.916 -13.835 -16.027 -18.096 -19.896 -21.648 -23.503 -25.179 -26.580 -27.933 -29.044 -29.717 -30.236 -30.615 -30.636 -30.576 -31.000 -31.899 -32.654 -32.957 -33.001 -33.029 -33.342 -33.883 -33.419 -30.837 -27.185 -24.726 -24.819 -27.235 -30.608 -33.657 -35.998 -37.696 -38.809 -39.597 -40.562 -41.608 -41.869 -41.084 -39.954 -39.040 -38.337 -37.698 -37.083 -36.448 -35.727 -34.921 -34.268 -34.118 -34.350 -34.485 -34.375 -34.253 -34.326 -34.476 -34.432 -34.170 -33.812 -33.333 -32.652 -31.847 -31.047 -30.177 -29.012 -27.484 -25.862 -24.414 -23.063 -21.606 -19.944 -18.160 -16.506 -15.128 -13.890 -12.428 -10.532 -8.514 -6.909 -6.066 -6.035 -6.447 -6.609 -6.073 -5.036 -4.062 -3.601 -3.748 -4.233 -4.704 -5.058 -5.375 -5.548 -5.403 -5.147 -5.103 -5.238 -5.458 -6.024 -7.137 -8.360 -9.268 -10.117 -11.330 -13.439 -17.383 -24.051 -33.341 -43.104 -50.299 -54.054 -55.954 -57.773 -60.095 -62.643 -65.372 -68.413 -71.318 -73.573 -75.242 -76.552 -77.619 -78.595 -79.445 -79.889 -79.879 -79.466 -78.575 -77.597 -77.076 -76.998 -77.069 -77.322 -77.654 -77.417 -76.986 -77.123 -77.314 -77.330 -77.438 -77.410 -76.969 -76.014 -74.960 -74.127 -71.715 -65.069 -54.962 -45.309 -38.694 -35.214 -34.699 -37.412 -42.961 -50.153 -57.664 -64.459 -70.024 -74.020 -75.630 -74.012 -70.114 -66.899 -65.386 -62.901 -59.153 -58.102 -60.455 -62.082 -60.580 -58.461 -59.806 -65.392 -72.258 -76.524 -76.051 -72.528 -69.939 -70.803 -75.406 -82.524 -89.578 -93.083 -89.581 -78.853 -67.273 -63.893 -70.722 -80.062 -84.052 -82.595 -79.860 -78.302 -77.738 -77.112 -75.882 -74.156 -71.588 -66.576 -58.620 -50.803 -46.717 -45.622 -44.149 -41.755 -39.567 -36.427 -31.752 -27.756 -26.037 -26.072 -26.785 -27.042 -25.476 -21.592 -16.471 -11.705 -8.115 -5.654 -4.094 -3.303 -3.041 -3.002 -3.034 -3.187 -3.599 -4.351 -5.441 -6.812 -8.377 -10.061 -11.807 -13.538 -15.173 -16.699 -18.159 -19.618 -21.151 -22.798 -24.581 -26.600 -28.687 -29.642 -28.002 -24.269 -20.829 -19.388 -69.463 -22.111 -26.344 -36.559 -34.363 -37.490 -40.418 -50.618 -63.705 -41.596
-3.083 -3.083 -3.050 -3.017 -3.003 -3.000 -3.000 -3.000 -3.001 -3.011 -3.065 -3.257 -3.708 -4.436 -5.200 -5.589 -5.362 -4.681 -3.933 -3.396 -3.122 -3.039 -3.109 -3.308 -3.437 -3.398 -3.556 -4.292 -5.492 -6.799 -8.027 -9.216 -10.491 -11.991 -13.778 -15.663 -17.384 -18.849 -20.165 -21.645 -23.351 -24.840 -25.973 -27.041 -27.966 -28.599 -29.146 -29.636 -29.910 -30.083 -30.465 -31.097 -31.653 -31.855 -31.715 -31.408 -31.093 -30.422 -28.302 -24.527 -20.966 -19.663 -21.181 -24.904 -29.458 -33.464 -36.371 -38.295 -39.414 -39.803 -39.837 -39.797 -39.282 -38.107 -36.823 -35.896 -35.265 -34.707 -34.186 -33.716 -33.165 -32.440 -31.890 -31.950 -32.347 -32.559 -32.503 -32.295 -32.067 -31.836 -31.429 -30.840 -30.219 -29.505 -28.569 -27.494 -26.396 -25.189 -23.717 -22.019 -20.301 -18.748 -17.419 -16.143 -14.673 -13.095 -11.729 -10.700 -9.868 -8.941 -7.700 -6.291 -5.112 -4.480 -4.440 -4.699 -4.806 -4.520 -3.971 -3.461 -3.202 -3.222 -3.414 -3.693 -4.077 -4.544 -4.863 -4.866 -4.770 -4.832 -5.067 -5.517 -6.368 -7.671 -9.009 -9.876 -10.455 -11.554 -14.106 -18.846 -26.242 -35.995 -45.832 -52.740 -56.178 -58.051 -60.137 -62.840 -65.714 -68.512 -71.196 -73.364 -74.638 -75.254 -75.787 -76.560 -77.439 -78.068 -78.228 -78.075 -77.692 -77.013 -76.478 -76.355 -76.316 -76.365 -76.674 -76.816 -76.250 -75.413 -74.927 -74.742 -74.827 -74.874 -74.321 -73.057 -71.307 -69.792 -68.740 -65.986 -58.857 -48.263 -37.984 -30.575 -26.313 -24.970 -26.509 -30.454 -35.938 -42.244 -48.858 -55.201 -60.152 -61.893 -59.409 -54.636 -51.575 -51.680 -51.915 -50.600 -50.295 -51.145 -49.666 -45.494 -42.324 -43.374 -49.072 -57.745 -66.194 -70.452 -69.513 -66.741 -65.970 -68.985 -75.332 -82.626 -88.046 -88.815 -83.478 -75.683 -72.835 -77.475 -83.986 -86.668 -85.759 -83.863 -82.229 -81.007 -79.848 -78.302 -76.460 -74.082 -69.106 -59.963 -49.333 -42.463 -41.104 -41.760 -41.655 -41.085 -39.130 -34.930 -30.808 -28.876 -28.604 -28.736 -28.180 -25.799 -21.426 -16.208 -11.509 -7.986 -5.571 -4.053 -3.290 -3.038 -3.000 -3.006 -3.050 -3.214 -3.605 -4.305 -5.313 -6.564 -8.002 -9.591 -11.269 -12.959 -14.624 -16.309 -18.120 -20.184 -22.609 -25.549 -29.184 -32.794 -34.287 -32.598 -29.609 -27.832 -9.317 -61.228 -36.321 -49.286 -59.175 -54.102 -68.967 -60.873 -92.924 -121.315 -151.656
-3.004 -3.004 -3.002 -3.000 -3.000 -3.000 -3.000 -3.000 -3.000 -3.001 -3.012 -3.074 -3.292 -3.794 -4.585 -5.401 -5.807 -5.554 -4.816 -4.008 -3.436 -3.192 -3.261 -3.526 -3.694 -3.674 -3.908 -4.800 -6.175 -7.621 -8.968 -10.348 -11.937 -13.797 -15.778 -17.543 -18.903 -19.905 -20.784 -21.997 -23.549 -24.778 -25.486 -26.134 -26.880 -27.574 -28.226 -28.862 -29.365 -29.687 -29.962 -30.296 -30.621 -30.743 -30.529 -29.997 -29.085 -27.348 -24.283 -20.664 -18.630 -19.502 -22.816 -27.351 -31.833 -35.350 -37.611 -38.782 -39.106 -38.614 -37.543 -36.434 -35.415 -34.334 -33.319 -32.600 -32.137 -31.768 -31.490 -31.287 -30.946 -30.366 -29.860 -29.754 -29.897 -30.013 -29.952 -29.559 -28.901 -28.176 -27.331 -26.380 -25.523 -24.690 -23.693 -22.546 -21.297 -19.888 -18.255 -16.509 -14.857 -13.451 -12.355 -11.397 -10.308 -9.138 -8.147 -7.431 -6.889 -6.325 -5.570 -4.693 -3.949 -3.534 -3.465 -3.578 -3.635 -3.520 -3.306 -3.127 -3.040 -3.033 -3.080 -3.183 -3.379 -3.660 -3.913 -4.060 -4.208 -4.503 -5.035 -5.883 -7.040 -8.450 -9.883 -10.939 -11.763 -13.316 -16.622 -22.297 -30.643 -40.943 -50.549 -56.772 -59.725 -61.490 -63.576 -66.159 -68.710 -70.859 -72.575 -73.776 -74.306 -74.276 -74.111 -74.134 -74.368 -74.763 -75.265 -75.722 -75.664 -74.779 -73.735 -73.035 -72.517 -72.424 -72.681 -72.405 -71.270 -69.922 -68.958 -68.697 -69.257 -69.922 -69.785 -68.655 -66.917 -65.420 -64.448 -62.467 -57.275 -48.504 -38.301 -29.480 -23.550 -20.688 -20.536 -22.475 -25.821 -30.091 -35.077 -40.424 -44.761 -45.938 -43.274 -39.047 -36.814 -38.158 -41.261 -43.826 -45.324 -44.437 -39.740 -33.557 -29.875 -30.523 -35.390 -43.826 -54.141 -62.577 -66.165 -65.843 -64.797 -65.941 -70.050 -75.331 -79.735 -81.711 -80.281 -77.638 -78.184 -82.620 -87.026 -88.487 -87.695 -86.374 -85.221 -84.096 -82.658 -80.760 -78.722 -76.319 -71.166 -61.228 -49.188 -40.996 -39.744 -42.550 -44.833 -45.176 -43.481 -39.500 -34.928 -32.014 -30.848 -30.343 -29.319 -26.507 -21.720 -16.244 -11.480 -7.969 -5.574 -4.070 -3.303 -3.042 -3.000 -3.001 -3.008 -3.049 -3.194 -3.532 -4.115 -4.926 -5.933 -7.113 -8.427 -9.819 -11.253 -12.764 -14.462 -16.515 -19.159 -22.799 -27.695 -32.745 -35.763 -36.511 -46.699 -38.821 -45.241 -67.521 -78.045 -87.059 -91.595 -99.978 -120.223 -139.049 -156.034 -164.666 -256.669
-3.000 -3.000 -3.000 -3.000 -3.000 -3.000 -3.000 -3.000 -3.000 -3.000 -3.001 -3.014 -3.087 -3.332 -3.879 -4.722 -5.579 -5.997 -5.717 -4.928 -4.098 -3.648 -3.764 -4.248 -4.543 -4.433 -4.537 -5.460 -6.985 -8.550 -9.963 -11.438 -13.141 -14.980 -16.772 -18.345 -19.596 -20.471 -21.149 -22.160 -23.553 -24.661 -25.256 -25.724 -26.257 -26.781 -27.298 -27.906 -28.532 -28.988 -29.240 -29.351 -29.431 -29.503 -29.363 -28.783 -27.536 -25.308 -22.276 -19.928 -20.137 -23.164 -27.684 -32.112 -35.395 -37.303 -37.996 -37.707 -36.768 -35.317 -33.530 -31.984 -31.009 -30.349 -29.761 -29.307 -29.039 -28.868 -28.714 -28.456 -27.938 -27.219 -26.527 -25.998 -25.703 -25.680 -25.694 -25.336 -24.584 -23.725 -22.787 -21.752 -20.804 -19.941 -18.994 -17.876 -16.544 -15.029 -13.424 -11.862 -10.482 -9.377 -8.566 -7.897 -7.155 -6.358 -5.683 -5.201 -4.854 -4.526 -4.119 -3.670 -3.315 -3.127 -3.084 -3.113 -3.131 -3.101 -3.050 -3.016 -3.003 -3.001 -3.005 -3.024 -3.073 -3.161 -3.271 -3.399 -3.614 -4.050 -4.845 -6.008 -7.400 -8.990 -10.788 -12.546 -14.300 -16.823 -21.021 -27.556 -36.604 -46.833 -55.495 -60.823 -63.546 -65.418 -67.410 -69.482 -71.176 -72.270 -72.850 -73.002 -72.743 -72.140 -71.362 -70.575 -70.075 -70.420 -71.676 -72.915 -72.877 -71.101 -68.504 -66.140 -64.405 -63.561 -63.211 -62.363 -60.720 -58.940 -57.732 -57.518 -58.469 -59.977 -61.024 -61.151 -60.639 -60.191 -60.102 -59.622 -57.055 -50.839 -41.637 -32.440 -25.710 -21.791 -19.999 -19.796 -20.860 -22.915 -25.915 -29.534 -32.317 -32.545 -30.157 -27.052 -25.690 -27.529 -32.174 -37.731 -41.239 -39.660 -33.183 -25.956 -21.820 -21.869 -25.780 -33.177 -43.228 -53.455 -60.992 -64.749 -65.611 -65.846 -67.256 -69.504 -70.911 -70.158 -68.189 -68.743 -74.351 -82.328 -87.927 -89.610 -88.920 -87.780 -87.099 -86.546 -85.309 -83.231 -80.993 -78.377 -73.077 -63.919 -53.770 -47.060 -46.142 -49.220 -51.765 -51.436 -48.928 -44.811 -39.850 -35.875 -33.650 -32.438 -31.079 -28.111 -22.964 -17.001 -11.938 -8.289 -5.802 -4.216 -3.369 -3.057 -3.001 -3.000 -3.000 -3.006 -3.039 -3.149 -3.391 -3.800 -4.382 -5.125 -5.999 -6.967 -8.007 -9.155 -10.526 -12.341 -14.989 -19.044 -24.840 -31.636 -38.073 -56.678 -45.827 -58.251 -82.923 -114.345 -123.466 -153.867 -153.967 -182.967 -199.033 -240.923 -233.699 -213.306 -283.285
-3.000 -3.000 -3.000 -3.000 -3.000 -3.000 -3.000 -3.000 -3.000 -3.000 -3.000 -3.001 -3.017 -3.102 -3.379 -3.978 -4.887 -5.805 -6.236 -5.906 -5.103 -4.507 -4.647 -5.347 -5.758 -5.497 -5.390 -6.255 -7.804 -9.355 -10.730 -12.149 -13.698 -15.232 -16.656 -17.993 -19.206 -20.130 -20.803 -21.681 -22.911 -24.048 -24.906 -25.611 -26.111 -26.344 -26.486 -26.839 -27.434 -28.010 -28.343 -28.388 -28.349 -28.448 -28.480 -28.059 -27.022 -25.309 -23.361 -22.682 -24.425 -27.923 -31.783 -34.929 -36.638 -36.892 -36.013 -34.323 -32.282 -30.097 -27.950 -26.404 -25.709 -25.478 -25.319 -25.191 -25.161 -25.122 -24.817 -24.074 -22.994 -21.914 -21.041 -20.336 -19.878 -19.820 -19.989 -19.992 -19.688 -19.214 -18.574 -17.722 -16.821 -15.956 -15.017 -13.867 -12.471 -10.976 -9.565 -8.331 -7.308 -6.518 -5.956 -5.508 -5.028 -4.527 -4.118 -3.837 -3.646 -3.492 -3.331 -3.173 -3.064 -3.016 -3.004 -3.007 -3.010 -3.006 -3.002 -3.000 -3.000 -3.000 -3.000 -3.001 -3.005 -3.017 -3.039 -3.084 -3.214 -3.569 -4.286 -5.384 -6.830 -8.741 -11.250 -14.201 -17.495 -21.512 -26.867 -34.108 -43.078 -52.173 -59.283 -63.679 -66.282 -68.304 -70.204 -71.698 -72.431 -72.515 -72.182 -71.413 -70.299 -69.066 -67.833 -66.675 -65.957 -66.454 -67.988 -68.737 -67.166 -63.432 -58.873 -54.824 -51.909 -50.157 -49.088 -47.939 -46.305 -44.572 -43.413 -43.216 -44.160 -45.890 -47.615 -48.924 -49.974 -51.066 -52.190 -52.922 -52.183 -48.469 -41.790 -34.539 -29.079 -25.725 -23.607 -22.125 -21.149 -20.790 -21.357 -22.650 -23.478 -22.795 -20.800 -18.685 -18.000 -19.915 -24.612 -30.992 -35.948 -35.657 -29.900 -22.732 -18.041 -17.189 -20.087 -26.366 -35.332 -45.256 -54.079 -60.549 -64.174 -65.429 -65.786 -66.129 -65.029 -60.773 -56.020 -56.936 -65.964 -78.272 -87.066 -90.073 -89.468 -88.090 -87.430 -87.411 -86.908 -85.301 -83.177 -80.439 -75.658 -69.251 -63.519 -59.573 -58.088 -59.087 -59.945 -58.254 -54.646 -50.215 -45.135 -40.411 -37.185 -35.281 -33.642 -30.602 -25.165 -18.646 -13.081 -9.087 -6.340 -4.537 -3.515 -3.099 -3.006 -3.000 -3.000 -3.000 -3.004 -3.023 -3.085 -3.226 -3.476 -3.850 -4.344 -4.953 -5.698 -6.660 -7.995 -9.983 -13.082 -17.884 -24.880 -34.178 -59.946 -63.676 -85.596 -103.959 -132.573 -162.949 -180.429 -213.863 -237.956 -258.533 -276.870 -324.339 -308.321 -367.164 -363.388
-3.000 -3.000 -3.000 -3.000 -3.000 -3.000 -3.000 -3.000 -3.000 -3.000 -3.001 -3.008 -3.027 -3.078 -3.222 -3.592 -4.321 -5.364 -6.352 -6.744 -6.361 -5.744 -5.715 -6.328 -6.659 -6.294 -6.152 -7.002 -8.432 -9.802 -11.039 -12.304 -13.589 -14.795 -15.912 -17.015 -18.132 -19.122 -19.915 -20.744 -21.753 -22.798 -23.857 -24.886 -25.541 -25.656 -25.560 -25.702 -26.223 -26.904 -27.428 -27.673 -27.826 -28.126 -28.414 -28.342 -27.977 -27.545 -27.256 -27.779 -29.352 -31.117 -32.585 -33.808 -34.327 -33.654 -31.769 -29.089 -26.286 -23.659 -21.410 -20.013 -19.551 -19.582 -19.703 -19.818 -19.969 -19.993 -19.520 -18.441 -17.089 -15.927 -15.116 -14.527 -14.157 -14.132 -14.403 -14.761 -15.038 -15.123 -14.877 -14.266 -13.458 -12.581 -11.588 -10.409 -9.094 -7.817 -6.720 -5.831 -5.133 -4.619 -4.273 -4.013 -3.753 -3.502 -3.318 -3.203 -3.131 -3.084 -3.049 -3.021 -3.005 -3.001 -3.000 -3.000 -3.000 -3.000 -3.000 -3.000 -3.000 -3.000 -3.000 -3.000 -3.000 -3.000 -3.001 -3.007 -3.052 -3.221 -3.636 -4.428 -5.753 -7.810 -10.748 -14.567 -19.235 -24.835 -31.538 -39.323 -47.530 -54.959 -60.595 -64.227 -66.544 -68.495 -70.387 -71.743 -72.113 -71.700 -70.808 -69.386 -67.592 -65.831 -64.355 -63.288 -62.810 -63.206 -63.567 -61.710 -57.023 -51.064 -45.448 -40.993 -37.873 -35.864 -34.599 -33.567 -32.335 -31.037 -30.145 -29.968 -30.660 -32.022 -33.591 -35.178 -36.876 -38.661 -40.269 -41.371 -41.512 -39.990 -36.701 -32.879 -30.015 -28.439 -27.366 -25.813 -23.440 -20.838 -18.896 -17.813 -16.980 -15.814 -14.282 -12.916 -12.704 -14.512 -18.521 -24.252 -29.914 -32.211 -29.354 -23.559 -18.642 -16.853 -18.699 -23.946 -31.759 -40.204 -47.478 -53.397 -57.970 -60.688 -62.133 -63.123 -62.051 -57.077 -51.452 -51.882 -60.695 -73.351 -83.520 -88.165 -88.373 -87.007 -86.183 -86.337 -86.566 -85.876 -84.160 -81.587 -78.383 -75.924 -74.670 -72.736 -70.101 -68.641 -67.441 -64.317 -59.789 -55.152 -50.175 -45.083 -41.039 -38.423 -36.468 -33.442 -27.997 -21.110 -14.933 -10.390 -7.232 -5.099 -3.806 -3.204 -3.025 -3.001 -3.000 -3.000 -3.000 -3.001 -3.008 -3.034 -3.100 -3.233 -3.469 -3.874 -4.557 -5.668 -7.413 -10.095 -14.166 -20.228 -29.025 -52.774 -70.630 -95.485 -133.534 -150.825 -182.594 -200.203 -226.318 -263.341 -297.994 -317.829 -407.031 -438.406 -502.664 -538.551 -569.059
-3.000 -3.000 -3.000 -3.000 -3.000 -3.000 -3.000 -3.001 -3.006 -3.022 -3.054 -3.112 -3.216 -3.374 -3.580 -3.904 -4.505 -5.492 -6.751 -7.799 -7.997 -7.373 -6.822 -6.803 -6.727 -6.365 -6.476 -7.453 -8.751 -9.880 -10.889 -11.914 -12.923 -13.861 -14.728 -15.580 -16.502 -17.490 -18.466 -19.403 -20.288 -21.142 -22.115 -23.193 -23.965 -24.181 -24.168 -24.339 -24.833 -25.560 -26.270 -26.815 -27.330 -27.975 -28.617 -29.023 -29.375 -29.995 -30.819 -31.617 -31.986 -31.568 -30.868 -30.567 -30.232 -28.930 -26.369 -23.115 -19.983 -17.334 -15.317 -14.183 -13.874 -13.984 -14.169 -14.339 -14.530 -14.573 -14.124 -13.148 -12.006 -11.081 -10.473 -10.056 -9.802 -9.802 -10.060 -10.510 -11.048 -11.452 -11.480 -11.096 -10.427 -9.573 -8.586 -7.523 -6.474 -5.540 -4.786 -4.220 -3.812 -3.540 -3.378 -3.273 -3.177 -3.095 -3.046 -3.022 -3.009 -3.003 -3.001 -3.000 -3.000 -3.000 -3.000 -3.000 -3.000 -3.000 -3.000 -3.000 -3.000 -3.000 -3.000 -3.000 -3.000 -3.000 -3.000 -3.000 -3.009 -3.055 -3.227 -3.728 -4.813 -6.659 -9.382 -13.129 -18.062 -24.246 -31.551 -39.391 -46.782 -52.955 -57.525 -60.394 -62.120 -63.772 -65.890 -68.002 -69.311 -69.552 -68.854 -67.315 -65.226 -63.120 -61.491 -60.579 -60.212 -59.736 -57.501 -52.050 -44.578 -37.634 -32.345 -28.595 -26.041 -24.373 -23.334 -22.572 -21.743 -20.874 -20.256 -20.112 -20.560 -21.489 -22.638 -23.914 -25.348 -26.854 -28.185 -29.121 -29.573 -29.458 -28.783 -27.893 -27.320 -27.307 -27.326 -26.141 -23.123 -19.227 -15.862 -13.550 -12.036 -10.876 -9.793 -8.958 -9.038 -10.648 -13.900 -18.650 -24.316 -28.893 -29.798 -26.869 -22.880 -20.794 -21.958 -26.301 -32.579 -38.479 -42.615 -45.930 -49.143 -51.740 -54.049 -56.346 -56.934 -54.531 -51.817 -53.384 -60.021 -68.636 -76.583 -82.259 -84.609 -84.527 -84.050 -84.198 -84.685 -84.557 -83.082 -80.557 -78.460 -78.480 -79.870 -79.928 -78.335 -76.599 -74.239 -70.012 -64.636 -59.223 -53.817 -48.778 -44.643 -41.436 -38.963 -36.069 -31.092 -24.202 -17.417 -12.168 -8.473 -5.929 -4.288 -3.408 -3.076 -3.005 -3.000 -3.000 -3.000 -3.000 -3.000 -3.005 -3.029 -3.108 -3.313 -3.775 -4.668 -6.198 -8.620 -12.271 -17.643 -25.446 -53.460 -70.621 -95.148 -132.978 -165.184 -197.839 -213.552 -232.348 -262.897 -304.031 -368.050 -449.855 -622.710 -710.365 -749.794 -728.336 -765.150
-3.000 -3.000 -3.000 -3.000 -3.000 -3.001 -3.006 -3.026 -3.079 -3.188 -3.351 -3.563 -3.855 -4.239 -4.655 -5.100 -5.715 -6.654 -7.970 -9.340 -9.900 -9.202 -7.996 -7.074 -6.412 -6.062 -6.462 -7.563 -8.768 -9.684 -10.371 -11.038 -11.759 -12.451 -13.004 -13.460 -14.021 -14.852 -15.926 -17.050 -18.055 -18.933 -19.817 -20.755 -21.499 -21.865 -22.089 -22.437 -22.969 -23.691 -24.462 -25.117 -25.757 -26.549 -27.481 -28.423 -29.329 -30.255 -31.083 -31.400 -30.823 -29.487 -28.066 -26.998 -25.835 -23.790 -20.766 -17.448 -14.533 -12.262 -10.672 -9.837 -9.645 -9.760 -9.899 -10.011 -10.152 -10.190 -9.860 -9.148 -8.329 -7.674 -7.247 -6.966 -6.819 -6.864 -7.076 -7.420 -7.888 -8.318 -8.474 -8.284 -7.782 -7.029 -6.172 -5.358 -4.650 -4.074 -3.650 -3.370 -3.200 -3.104 -3.057 -3.035 -3.019 -3.006 -3.001 -3.000 -3.000 -3.000 -3.000 -3.000 -3.000 -3.000 -3.000 -3.000 -3.000 -3.000 -3.000 -3.000 -3.000 -3.000 -3.000 -3.000 -3.000 -3.000 -3.000 -3.000 -3.001 -3.007 -3.067 -3.352 -4.120 -5.547 -7.716 -10.763 -14.902 -20.274 -26.740 -33.682 -40.180 -45.461 -49.062 -50.956 -51.877 -53.103 -55.482 -58.761 -61.977 -64.302 -65.308 -64.822 -63.090 -60.892 -59.114 -58.081 -57.266 -55.248 -50.211 -42.107 -33.529 -26.882 -22.446 -19.532 -17.602 -16.358 -15.597 -15.065 -14.516 -13.943 -13.519 -13.407 -13.694 -14.314 -15.111 -16.010 -17.005 -18.041 -18.970 -19.657 -20.130 -20.521 -20.935 -21.392 -21.908 -22.551 -22.992 -22.138 -19.333 -15.528 -12.169 -9.842 -8.405 -7.488 -6.789 -6.357 -6.628 -8.017 -10.627 -14.461 -19.526 -25.068 -29.013 -29.673 -27.962 -26.612 -27.617 -30.972 -35.011 -37.705 -38.732 -39.588 -40.884 -42.136 -43.665 -45.550 -46.758 -47.157 -48.530 -52.431 -57.696 -62.569 -67.852 -74.051 -78.983 -81.179 -81.693 -81.988 -82.519 -82.663 -81.541 -79.144 -76.694 -75.927 -77.167 -79.127 -80.700 -81.083 -79.458 -75.578 -69.919 -63.234 -56.634 -51.522 -47.745 -44.190 -41.134 -38.470 -34.297 -27.733 -20.443 -14.388 -10.031 -7.002 -4.965 -3.743 -3.185 -3.023 -3.001 -3.000 -3.000 -3.001 -3.009 -3.047 -3.156 -3.389 -3.827 -4.606 -5.922 -8.037 -11.293 -16.137 -23.183 -51.297 -69.743 -93.237 -122.196 -158.081 -189.253 -216.199 -236.638 -262.504 -296.475 -391.929 -479.120 -704.216 -862.712 -969.280 -991.661 -943.532 -954.659
-3.000 -3.000 -3.001 -3.003 -3.009 -3.028 -3.080 -3.192 -3.401 -3.738 -4.173 -4.641 -5.151 -5.739 -6.332 -6.876 -7.456 -8.180 -9.166 -10.303 -10.865 -10.286 -9.025 -7.773 -6.756 -6.230 -6.515 -7.454 -8.491 -9.171 -9.444 -9.669 -10.121 -10.588 -10.761 -10.731 -10.866 -11.427 -12.386 -13.522 -14.660 -15.725 -16.666 -17.476 -18.148 -18.655 -19.103 -19.638 -20.286 -21.055 -21.838 -22.453 -22.944 -23.559 -24.528 -25.795 -26.967 -27.783 -28.174 -27.944 -27.053 -25.851 -24.631 -23.301 -21.474 -18.876 -15.786 -12.824 -10.416 -8.650 -7.506 -6.993 -6.983 -7.135 -7.179 -7.141 -7.153 -7.134 -6.876 -6.370 -5.804 -5.355 -5.072 -4.926 -4.961 -5.185 -5.422 -5.566 -5.745 -5.994 -6.138 -6.043 -5.681 -5.103 -4.479 -3.964 -3.582 -3.316 -3.150 -3.062 -3.023 -3.007 -3.001 -3.000 -3.000 -3.000 -3.000 -3.000 -3.000 -3.000 -3.000 -3.000 -3.000 -3.000 -3.000 -3.000 -3.000 -3.000 -3.000 -3.000 -3.000 -3.000 -3.000 -3.000 -3.000 -3.000 -3.000 -3.000 -3.000 -3.000 -3.018 -3.151 -3.602 -4.566 -6.137 -8.386 -11.440 -15.413 -20.226 -25.497 -30.575 -34.685 -37.241 -38.280 -38.609 -39.450 -41.700 -45.381 -49.880 -54.444 -58.209 -60.187 -59.914 -58.280 -56.712 -55.538 -53.906 -50.173 -43.072 -33.859 -25.464 -19.491 -15.710 -13.364 -11.880 -10.954 -10.407 -10.043 -9.683 -9.306 -9.019 -8.936 -9.119 -9.529 -10.067 -10.679 -11.352 -12.054 -12.695 -13.189 -13.582 -14.012 -14.568 -15.216 -15.881 -16.559 -17.023 -16.508 -14.508 -11.652 -9.002 -7.088 -5.921 -5.297 -4.997 -4.975 -5.429 -6.591 -8.585 -11.546 -15.675 -20.825 -25.787 -28.761 -29.315 -29.144 -30.189 -32.551 -34.669 -35.243 -34.667 -34.196 -34.073 -33.974 -34.195 -34.696 -35.070 -36.083 -39.072 -43.978 -49.110 -53.595 -58.871 -65.842 -72.687 -77.158 -79.099 -79.983 -80.946 -81.667 -81.353 -79.813 -77.260 -74.763 -73.947 -75.387 -78.348 -80.971 -81.360 -79.045 -74.413 -68.044 -61.236 -55.753 -51.458 -46.992 -43.177 -40.722 -37.426 -31.437 -23.884 -17.033 -11.906 -8.309 -5.834 -4.249 -3.394 -3.075 -3.006 -3.000 -3.001 -3.013 -3.070 -3.240 -3.598 -4.183 -5.041 -6.298 -8.192 -11.077 -15.423 -21.815 -47.642 -65.651 -86.817 -111.715 -142.411 -170.683 -200.127 -228.309 -253.183 -287.090 -347.998 -447.941 -712.156 -914.162 -1026.681 -1115.236 -1144.929 -1151.946 -1151.847
-3.002 -3.002 -3.017 -3.055 -3.113 -3.207 -3.399 -3.729 -4.204 -4.831 -5.539 -6.186 -6.737 -7.270 -7.771 -8.160 -8.433 -8.639 -8.940 -9.460 -9.872 -9.825 -9.492 -8.975 -8.084 -7.111 -6.754 -7.200 -7.927 -8.285 -8.122 -7.959 -8.192 -8.460 -8.332 -7.974 -7.835 -8.159 -8.877 -9.800 -10.832 -11.898 -12.812 -13.493 -14.093 -14.679 -15.239 -15.883 -16.646 -17.481 -18.315 -18.991 -19.454 -19.930 -20.752 -21.879 -22.894 -23.566 -23.831 -23.533 -22.795 -21.983 -21.078 -19.674 -17.500 -14.743 -11.927 -9.486 -7.601 -6.334 -5.712 -5.699 -6.065 -6.348 -6.229 -5.862 -5.552 -5.316 -5.008 -4.621 -4.254 -3.986 -3.832 -3.843 -4.173 -4.770 -5.177 -5.104 -4.838 -4.695 -4.615 -4.467 -4.209 -3.857 -3.513 -3.273 -3.132 -3.056 -3.020 -3.007 -3.003 -3.002 -3.001 -3.001 -3.000 -3.000 -3.000 -3.000 -3.000 -3.000 -3.000 -3.000 -3.000 -3.000 -3.000 -3.000 -3.000 -3.000 -3.000 -3.000 -3.000 -3.000 -3.000 -3.000 -3.000 -3.000 -3.000 -3.000 -3.000 -3.000 -3.004 -3.049 -3.257 -3.802 -4.815 -6.361 -8.496 -11.252 -14.546 -18.127 -21.581 -24.348 -25.988 -26.555 -26.676 -27.273 -29.058 -32.184 -36.485 -41.709 -47.264 -51.806 -53.945 -54.112 -53.816 -53.045 -50.571 -45.189 -36.822 -27.590 -19.951 -14.651 -11.309 -9.316 -8.117 -7.393 -6.987 -6.740 -6.510 -6.268 -6.079 -6.021 -6.136 -6.400 -6.750 -7.151 -7.593 -8.062 -8.499 -8.849 -9.153 -9.513 -9.971 -10.480 -10.989 -11.503 -11.885 -11.655 -10.450 -8.578 -6.693 -5.239 -4.372 -4.055 -4.135 -4.484 -5.096 -6.049 -7.474 -9.598 -12.650 -16.551 -20.608 -23.645 -25.011 -25.487 -26.461 -28.199 -29.729 -30.229 -29.814 -28.959 -27.844 -26.769 -26.279 -26.132 -25.815 -26.122 -28.323 -32.432 -37.482 -43.054 -49.638 -57.422 -65.380 -71.584 -74.984 -76.845 -78.760 -80.445 -81.196 -81.109 -79.916 -77.583 -75.255 -74.332 -76.027 -79.383 -81.171 -79.948 -76.731 -72.529 -67.678 -62.601 -57.002 -50.536 -45.295 -42.631 -40.054 -34.908 -27.539 -20.097 -14.150 -9.894 -6.932 -4.945 -3.750 -3.198 -3.029 -3.001 -3.008 -3.063 -3.257 -3.712 -4.500 -5.606 -7.030 -8.919 -11.598 -15.547 -21.364 -43.491 -60.291 -79.200 -99.436 -127.461 -147.547 -175.413 -202.580 -231.890 -266.978 -284.118 -337.415 -602.540 -893.688 -1009.771 -1097.104 -1165.828 -1242.984 -1265.687 -1336.072
-3.016 -3.016 -3.097 -3.282 -3.507 -3.726 -4.057 -4.600 -5.302 -6.073 -6.783 -7.264 -7.511 -7.692 -7.858 -7.897 -7.753 -7.507 -7.355 -7.517 -7.977 -8.678 -9.652 -10.330 -9.787 -8.242 -7.014 -6.826 -7.159 -7.172 -6.708 -6.317 -6.333 -6.405 -6.160 -5.737 -5.524 -5.706 -6.195 -6.847 -7.623 -8.487 -9.251 -9.798 -10.272 -10.755 -11.235 -11.823 -12.541 -13.313 -14.141 -14.962 -15.632 -16.186 -16.804 -17.478 -18.110 -18.727 -19.213 -19.327 -19.081 -18.602 -17.731 -16.178 -13.946 -11.428 -9.103 -7.237 -5.924 -5.269 -5.354 -6.069 -7.014 -7.528 -7.190 -6.306 -5.443 -4.807 -4.349 -4.018 -3.776 -3.612 -3.529 -3.657 -4.289 -5.344 -6.059 -5.865 -5.131 -4.457 -3.985 -3.670 -3.477 -3.332 -3.215 -3.149 -3.123 -3.113 -3.107 -3.103 -3.099 -3.095 -3.089 -3.083 -3.078 -3.073 -3.067 -3.061 -3.055 -3.049 -3.043 -3.037 -3.031 -3.025 -3.019 -3.013 -3.007 -3.002 -3.000 -3.000 -3.000 -3.000 -3.000 -3.000 -3.000 -3.000 -3.000 -3.000 -3.000 -3.000 -3.000 -3.011 -3.079 -3.318 -3.864 -4.823 -6.243 -8.103 -10.296 -12.631 -14.835 -16.562 -17.556 -17.878 -17.949 -18.399 -19.724 -22.061 -25.397 -29.783 -35.154 -40.679 -44.958 -47.785 -49.718 -49.837 -46.649 -39.971 -31.204 -22.721 -16.116 -11.530 -8.607 -6.881 -5.826 -5.163 -4.815 -4.650 -4.520 -4.384 -4.278 -4.244 -4.307 -4.455 -4.656 -4.893 -5.167 -5.469 -5.758 -5.996 -6.214 -6.487 -6.830 -7.196 -7.549 -7.904 -8.192 -8.115 -7.423 -6.268 -5.042 -4.070 -3.534 -3.446 -3.692 -4.150 -4.765 -5.543 -6.565 -8.012 -10.036 -12.553 -15.140 -17.161 -18.217 -18.699 -19.476 -20.880 -22.475 -23.653 -23.945 -23.128 -21.503 -19.995 -19.395 -19.360 -19.077 -18.894 -20.006 -22.904 -27.273 -32.872 -39.660 -47.485 -55.758 -62.832 -67.186 -69.793 -72.559 -75.470 -77.789 -79.496 -80.274 -79.350 -76.454 -73.187 -73.006 -76.671 -80.376 -80.832 -78.734 -76.229 -73.520 -69.647 -63.638 -55.616 -48.584 -44.775 -42.225 -37.953 -31.250 -23.581 -16.845 -11.824 -8.290 -5.861 -4.289 -3.431 -3.089 -3.008 -3.025 -3.173 -3.610 -4.481 -5.840 -7.647 -9.880 -12.694 -16.493 -21.886 -39.986 -53.978 -71.871 -88.262 -108.107 -124.541 -147.136 -169.507 -197.055 -235.641 -259.281 -256.791 -374.592 -665.016 -959.550 -1082.022 -1151.518 -1203.785 -1295.037 -1384.898 -1461.288
-3.044 -3.044 -3.247 -3.682 -4.153 -4.435 -4.674 -5.142 -5.815 -6.480 -6.909 -6.960 -6.765 -6.597 -6.517 -6.375 -6.120 -5.902 -5.920 -6.325 -7.176 -8.572 -10.464 -11.841 -11.342 -9.237 -7.246 -6.406 -6.284 -6.048 -5.535 -5.085 -4.878 -4.764 -4.542 -4.232 -4.059 -4.156 -4.455 -4.869 -5.408 -6.097 -6.796 -7.294 -7.583 -7.777 -7.999 -8.379 -8.901 -9.485 -10.177 -11.002 -11.811 -12.425 -12.817 -13.079 -13.417 -14.009 -14.737 -15.326 -15.564 -15.264 -14.287 -12.672 -10.718 -8.802 -7.135 -5.861 -5.196 -5.321 -6.250 -7.801 -9.461 -10.296 -9.709 -8.195 -6.667 -5.586 -4.992 -4.688 -4.440 -4.203 -4.046 -4.184 -4.980 -6.338 -7.320 -7.109 -6.034 -4.932 -4.175 -3.772 -3.632 -3.605 -3.598 -3.599 -3.601 -3.598 -3.589 -3.576 -3.562 -3.545 -3.525 -3.501 -3.475 -3.447 -3.416 -3.385 -3.352 -3.319 -3.286 -3.253 -3.221 -3.188 -3.156 -3.123 -3.092 -3.067 -3.051 -3.042 -3.034 -3.026 -3.018 -3.011 -3.005 -3.001 -3.000 -3.000 -3.000 -3.000 -3.000 -3.001 -3.015 -3.088 -3.314 -3.812 -4.660 -5.845 -7.264 -8.766 -10.158 -11.214 -11.798 -11.970 -12.013 -12.354 -13.335 -15.043 -17.465 -20.694 -24.869 -29.783 -34.779 -39.405 -43.031 -43.892 -40.555 -33.755 -25.763 -18.644 -13.227 -9.412 -6.952 -5.491 -4.550 -3.921 -3.611 -3.509 -3.457 -3.405 -3.363 -3.350 -3.374 -3.432 -3.516 -3.627 -3.770 -3.938 -4.103 -4.240 -4.371 -4.541 -4.761 -5.000 -5.233 -5.469 -5.673 -5.657 -5.266 -4.605 -3.923 -3.410 -3.160 -3.156 -3.323 -3.619 -4.040 -4.597 -5.327 -6.304 -7.586 -9.115 -10.660 -11.864 -12.507 -12.838 -13.412 -14.498 -15.910 -17.215 -17.782 -17.130 -15.595 -14.215 -13.739 -13.866 -13.790 -13.545 -14.103 -16.106 -19.453 -23.967 -29.618 -36.345 -43.799 -50.699 -55.390 -58.152 -61.001 -64.841 -69.010 -72.753 -75.344 -75.296 -71.302 -65.549 -63.680 -68.627 -76.790 -81.969 -82.326 -80.596 -78.357 -75.139 -69.931 -62.288 -54.347 -48.582 -44.702 -40.708 -34.923 -27.429 -20.012 -14.126 -9.910 -6.976 -4.988 -3.776 -3.199 -3.026 -3.058 -3.346 -4.097 -5.455 -7.480 -10.203 -13.638 -17.890 -23.328 -30.636 -50.318 -65.518 -79.486 -93.162 -104.934 -118.434 -129.229 -152.432 -193.692 -232.876 -248.583 -243.759 -366.084 -746.743 -1015.457 -1165.698 -1219.245 -1273.954 -1338.893 -1445.304 -1517.623
-3.061 -3.061 -3.332 -3.904 -4.489 -4.703 -4.657 -4.781 -5.184 -5.613 -5.774 -5.563 -5.191 -4.958 -4.916 -4.943 -5.014 -5.271 -5.863 -6.859 -8.295 -10.246 -12.449 -13.650 -12.647 -10.074 -7.650 -6.248 -5.602 -5.194 -4.827 -4.470 -4.123 -3.864 -3.683 -3.529 -3.459 -3.523 -3.685 -3.920 -4.276 -4.833 -5.503 -5.984 -6.110 -6.024 -5.978 -6.113 -6.393 -6.751 -7.220 -7.851 -8.544 -9.049 -9.248 -9.300 -9.488 -9.996 -10.760 -11.506 -11.885 -11.646 -10.766 -9.437 -8.037 -6.875 -5.926 -5.233 -5.211 -6.141 -7.915 -10.315 -12.785 -14.074 -13.297 -11.130 -8.928 -7.461 -6.788 -6.485 -6.115 -5.639 -5.280 -5.349 -6.117 -7.400 -8.332 -8.113 -6.977 -5.801 -5.073 -4.770 -4.714 -4.735 -4.753 -4.758 -4.752 -4.733 -4.704 -4.665 -4.618 -4.565 -4.507 -4.443 -4.373 -4.297 -4.219 -4.138 -4.055 -3.973 -3.892 -3.812 -3.733 -3.654 -3.575 -3.496 -3.420 -3.354 -3.301 -3.258 -3.218 -3.178 -3.138 -3.100 -3.068 -3.046 -3.033 -3.024 -3.016 -3.008 -3.003 -3.000 -3.001 -3.014 -3.078 -3.270 -3.677 -4.330 -5.177 -6.104 -6.960 -7.594 -7.930 -8.019 -8.046 -8.302 -9.023 -10.260 -12.000 -14.313 -17.329 -21.087 -25.424 -29.948 -33.644 -34.730 -32.100 -26.668 -20.461 -14.999 -10.793 -7.769 -5.775 -4.585 -3.851 -3.389 -3.178 -3.123 -3.106 -3.090 -3.076 -3.066 -3.064 -3.070 -3.086 -3.118 -3.168 -3.233 -3.297 -3.351 -3.404 -3.477 -3.582 -3.707 -3.837 -3.973 -4.094 -4.096 -3.898 -3.580 -3.292 -3.107 -3.030 -3.030 -3.079 -3.181 -3.360 -3.645 -4.077 -4.689 -5.494 -6.446 -7.410 -8.159 -8.560 -8.787 -9.205 -9.992 -11.043 -12.071 -12.593 -12.196 -11.091 -10.061 -9.673 -9.745 -9.700 -9.508 -9.859 -11.271 -13.688 -16.960 -21.096 -26.123 -31.932 -37.784 -42.203 -44.717 -47.006 -50.728 -55.693 -60.896 -65.049 -65.765 -61.093 -53.727 -50.846 -57.199 -69.871 -80.817 -85.137 -84.655 -82.610 -79.863 -75.675 -69.468 -61.904 -54.228 -47.879 -43.249 -38.340 -31.419 -23.562 -16.775 -11.768 -8.247 -5.818 -4.215 -3.366 -3.070 -3.134 -3.608 -4.709 -6.574 -9.319 -13.133 -18.187 -38.017 -32.419 -49.152 -62.122 -75.160 -86.544 -94.267 -98.927 -108.306 -113.602 -135.202 -176.340 -231.968 -264.492 -327.059 -452.792 -914.787 -1102.788 -1257.892 -1274.796 -1315.751 -1342.196 -1406.937 -1515.804
-3.044 -3.044 -3.247 -3.682 -4.119 -4.216 -4.020 -3.911 -4.052 -4.270 -4.337 -4.191 -4.004 -3.997 -4.226 -4.643 -5.251 -6.127 -7.348 -8.938 -10.858 -12.992 -14.782 -15.091 -13.471 -10.927 -8.595 -6.831 -5.673 -5.114 -4.941 -4.751 -4.367 -3.986 -3.766 -3.677 -3.669 -3.714 -3.795 -3.919 -4.135 -4.527 -5.053 -5.449 -5.521 -5.375 -5.234 -5.212 -5.292 -5.433 -5.646 -5.979 -6.392 -6.684 -6.725 -6.639 -6.680 -7.037 -7.689 -8.328 -8.582 -8.345 -7.716 -6.837 -5.997 -5.462 -5.134 -5.020 -5.609 -7.200 -9.624 -12.654 -15.746 -17.528 -16.878 -14.426 -11.858 -10.253 -9.617 -9.301 -8.745 -7.960 -7.347 -7.303 -7.889 -8.739 -9.259 -9.000 -8.110 -7.199 -6.667 -6.494 -6.491 -6.513 -6.507 -6.469 -6.408 -6.332 -6.246 -6.147 -6.037 -5.920 -5.800 -5.677 -5.550 -5.421 -5.289 -5.157 -5.025 -4.895 -4.767 -4.641 -4.518 -4.396 -4.275 -4.154 -4.037 -3.927 -3.826 -3.733 -3.642 -3.552 -3.462 -3.375 -3.298 -3.236 -3.188 -3.146 -3.105 -3.068 -3.039 -3.022 -3.012 -3.007 -3.013 -3.058 -3.192 -3.463 -3.875 -4.372 -4.853 -5.213 -5.401 -5.446 -5.464 -5.647 -6.157 -7.030 -8.261 -9.906 -12.059 -14.769 -17.955 -21.324 -24.099 -25.032 -23.407 -19.857 -15.662 -11.797 -8.722 -6.498 -5.025 -4.165 -3.709 -3.472 -3.361 -3.311 -3.275 -3.237 -3.199 -3.161 -3.123 -3.089 -3.065 -3.054 -3.052 -3.055 -3.058 -3.060 -3.064 -3.077 -3.106 -3.150 -3.200 -3.253 -3.301 -3.304 -3.232 -3.127 -3.050 -3.014 -3.002 -3.001 -3.005 -3.021 -3.060 -3.149 -3.324 -3.621 -4.059 -4.615 -5.196 -5.652 -5.897 -6.050 -6.346 -6.908 -7.673 -8.471 -9.033 -9.052 -8.513 -7.813 -7.348 -7.131 -6.913 -6.696 -6.909 -7.891 -9.592 -11.887 -14.779 -18.320 -22.505 -26.939 -30.518 -32.549 -34.162 -36.971 -41.238 -46.413 -51.415 -53.793 -51.114 -45.286 -43.219 -50.159 -63.971 -77.165 -84.032 -85.292 -84.727 -83.595 -80.815 -76.053 -69.387 -60.709 -52.022 -45.906 -41.296 -35.221 -27.322 -19.682 -13.778 -9.597 -6.675 -4.724 -3.597 -3.167 -3.298 -4.025 -5.506 -7.886 -11.381 -16.371 -26.252 -37.461 -48.021 -60.664 -72.920 -83.219 -90.576 -94.862 -97.412 -100.297 -108.258 -128.001 -172.084 -234.805 -290.984 -419.848 -754.593 -1042.609 -1199.076 -1270.672 -1312.801 -1331.118 -1341.626 -1347.088 -1362.255
-3.016 -3.016 -3.097 -3.282 -3.472 -3.497 -3.369 -3.272 -3.307 -3.417 -3.527 -3.635 -3.832 -4.222 -4.845 -5.706 -6.834 -8.269 -9.998 -11.878 -13.645 -15.040 -15.655 -15.097 -13.717 -12.106 -10.220 -8.142 -6.590 -6.041 -6.136 -6.122 -5.710 -5.184 -4.807 -4.579 -4.424 -4.309 -4.236 -4.226 -4.306 -4.516 -4.836 -5.115 -5.221 -5.198 -5.161 -5.172 -5.222 -5.271 -5.310 -5.402 -5.565 -5.655 -5.523 -5.224 -5.018 -5.187 -5.721 -6.191 -6.226 -5.914 -5.466 -4.943 -4.491 -4.304 -4.358 -4.731 -5.793 -7.697 -10.258 -13.277 -16.322 -18.314 -18.201 -16.344 -14.312 -13.200 -12.865 -12.558 -11.804 -10.747 -9.909 -9.701 -10.004 -10.334 -10.368 -10.046 -9.466 -8.875 -8.486 -8.319 -8.265 -8.217 -8.134 -8.012 -7.864 -7.705 -7.541 -7.372 -7.198 -7.023 -6.850 -6.680 -6.512 -6.346 -6.182 -6.021 -5.862 -5.706 -5.553 -5.405 -5.259 -5.115 -4.974 -4.834 -4.697 -4.563 -4.433 -4.306 -4.180 -4.056 -3.933 -3.812 -3.698 -3.595 -3.502 -3.413 -3.324 -3.241 -3.171 -3.120 -3.081 -3.050 -3.028 -3.021 -3.040 -3.106 -3.240 -3.433 -3.645 -3.820 -3.918 -3.945 -3.962 -4.081 -4.404 -4.974 -5.813 -6.962 -8.476 -10.370 -12.557 -14.827 -16.693 -17.372 -16.434 -14.290 -11.695 -9.220 -7.225 -5.825 -4.946 -4.466 -4.238 -4.119 -4.029 -3.943 -3.854 -3.763 -3.670 -3.577 -3.485 -3.400 -3.329 -3.273 -3.226 -3.182 -3.140 -3.101 -3.068 -3.046 -3.037 -3.036 -3.038 -3.043 -3.047 -3.044 -3.030 -3.012 -3.002 -3.000 -3.000 -3.000 -3.000 -3.000 -3.003 -3.016 -3.056 -3.148 -3.317 -3.567 -3.857 -4.101 -4.246 -4.349 -4.544 -4.938 -5.525 -6.228 -6.952 -7.484 -7.586 -7.253 -6.691 -6.111 -5.583 -5.175 -5.136 -5.683 -6.783 -8.339 -10.341 -12.835 -15.817 -18.989 -21.556 -22.995 -24.066 -25.947 -28.974 -33.012 -37.708 -41.652 -42.759 -41.540 -42.688 -50.170 -62.203 -73.312 -79.761 -82.281 -83.751 -84.866 -84.277 -81.418 -76.089 -67.844 -58.112 -50.052 -44.547 -38.857 -30.979 -22.508 -15.670 -10.821 -7.465 -5.206 -3.865 -3.363 -3.632 -4.673 -6.574 -9.505 -13.808 -20.903 -28.767 -41.595 -58.135 -71.703 -81.593 -88.438 -92.433 -95.396 -98.388 -102.555 -110.079 -127.257 -170.805 -230.460 -299.767 -496.551 -907.213 -1129.953 -1214.872 -1263.838 -1287.928 -1296.946 -1327.966 -1289.762 -1259.312
-3.002 -3.002 -3.017 -3.055 -3.097 -3.102 -3.072 -3.066 -3.137 -3.313 -3.624 -4.091 -4.731 -5.565 -6.619 -7.934 -9.541 -11.368 -13.147 -14.461 -14.990 -14.822 -14.307 -13.901 -13.897 -13.566 -11.867 -9.329 -7.565 -7.321 -7.925 -8.256 -7.924 -7.296 -6.699 -6.153 -5.634 -5.168 -4.783 -4.503 -4.338 -4.294 -4.362 -4.478 -4.574 -4.654 -4.760 -4.910 -5.075 -5.188 -5.222 -5.244 -5.301 -5.290 -5.057 -4.616 -4.250 -4.296 -4.698 -4.948 -4.751 -4.356 -4.022 -3.741 -3.526 -3.473 -3.648 -4.210 -5.358 -7.067 -9.165 -11.520 -13.882 -15.631 -16.062 -15.331 -14.527 -14.361 -14.474 -14.205 -13.369 -12.285 -11.439 -11.113 -11.128 -11.089 -10.859 -10.524 -10.145 -9.770 -9.468 -9.264 -9.117 -8.976 -8.816 -8.634 -8.438 -8.239 -8.041 -7.846 -7.653 -7.465 -7.281 -7.103 -6.930 -6.761 -6.596 -6.434 -6.276 -6.122 -5.971 -5.824 -5.679 -5.537 -5.397 -5.259 -5.124 -4.989 -4.857 -4.726 -4.596 -4.467 -4.340 -4.214 -4.091 -3.971 -3.855 -3.740 -3.626 -3.516 -3.415 -3.329 -3.254 -3.188 -3.138 -3.106 -3.087 -3.082 -3.099 -3.143 -3.212 -3.285 -3.344 -3.385 -3.430 -3.523 -3.717 -4.059 -4.589 -5.330 -6.304 -7.513 -8.904 -10.353 -11.558 -12.014 -11.441 -10.138 -8.632 -7.286 -6.275 -5.622 -5.249 -5.059 -4.958 -4.874 -4.778 -4.671 -4.555 -4.435 -4.312 -4.188 -4.063 -3.942 -3.831 -3.731 -3.637 -3.546 -3.456 -3.371 -3.294 -3.232 -3.186 -3.151 -3.122 -3.097 -3.075 -3.056 -3.041 -3.032 -3.027 -3.023 -3.019 -3.015 -3.012 -3.009 -3.006 -3.005 -3.007 -3.020 -3.060 -3.137 -3.247 -3.361 -3.458 -3.544 -3.671 -3.934 -4.383 -4.996 -5.750 -6.535 -7.080 -7.164 -6.811 -6.221 -5.562 -4.948 -4.573 -4.615 -5.105 -6.010 -7.334 -9.113 -11.291 -13.534 -15.236 -16.128 -16.794 -18.015 -20.027 -22.840 -26.505 -30.656 -34.397 -37.765 -42.885 -51.460 -61.686 -70.057 -75.098 -78.092 -80.886 -83.523 -84.989 -84.630 -81.660 -75.368 -66.398 -57.278 -50.043 -43.162 -34.361 -24.884 -17.205 -11.802 -8.087 -5.624 -4.218 -3.806 -4.304 -5.677 -8.025 -11.592 -16.822 -25.933 -35.277 -51.052 -67.904 -80.020 -87.698 -91.878 -94.036 -98.141 -101.895 -107.565 -114.750 -124.597 -165.405 -218.043 -286.606 -522.125 -804.676 -1039.698 -1143.005 -1153.355 -1159.959 -1207.070 -1221.307 -1211.850 -1212.367
-3.000 -3.000 -3.001 -3.003 -3.010 -3.027 -3.073 -3.194 -3.450 -3.897 -4.571 -5.468 -6.568 -7.869 -9.396 -11.156 -13.038 -14.660 -15.483 -15.205 -14.049 -12.763 -12.258 -13.049 -14.463 -14.612 -12.511 -9.534 -7.745 -7.871 -9.075 -10.031 -10.184 -9.825 -9.258 -8.516 -7.646 -6.783 -6.012 -5.356 -4.819 -4.402 -4.114 -3.944 -3.864 -3.865 -3.952 -4.113 -4.303 -4.452 -4.526 -4.567 -4.612 -4.593 -4.405 -4.070 -3.813 -3.862 -4.094 -4.119 -3.829 -3.493 -3.291 -3.177 -3.103 -3.095 -3.227 -3.657 -4.493 -5.675 -7.083 -8.642 -10.227 -11.509 -12.102 -12.109 -12.182 -12.621 -12.970 -12.748 -12.044 -11.266 -10.716 -10.455 -10.344 -10.197 -9.979 -9.746 -9.523 -9.309 -9.113 -8.940 -8.781 -8.624 -8.464 -8.298 -8.130 -7.961 -7.794 -7.629 -7.467 -7.308 -7.153 -7.002 -6.854 -6.709 -6.568 -6.428 -6.292 -6.159 -6.028 -5.899 -5.772 -5.646 -5.522 -5.399 -5.278 -5.158 -5.038 -4.920 -4.803 -4.687 -4.572 -4.458 -4.345 -4.233 -4.123 -4.015 -3.909 -3.805 -3.708 -3.617 -3.535 -3.462 -3.403 -3.361 -3.334 -3.321 -3.323 -3.344 -3.386 -3.445 -3.519 -3.604 -3.703 -3.824 -3.983 -4.207 -4.515 -4.911 -5.401 -5.999 -6.706 -7.477 -8.147 -8.405 -8.060 -7.306 -6.523 -5.942 -5.597 -5.418 -5.327 -5.281 -5.246 -5.199 -5.135 -5.058 -4.972 -4.878 -4.779 -4.675 -4.568 -4.458 -4.349 -4.240 -4.131 -4.022 -3.912 -3.803 -3.698 -3.605 -3.525 -3.457 -3.397 -3.344 -3.297 -3.253 -3.217 -3.189 -3.166 -3.144 -3.124 -3.105 -3.087 -3.071 -3.057 -3.045 -3.037 -3.035 -3.044 -3.071 -3.120 -3.189 -3.279 -3.378 -3.480 -3.637 -3.918 -4.332 -4.871 -5.499 -6.072 -6.422 -6.495 -6.328 -5.954 -5.434 -4.918 -4.570 -4.497 -4.780 -5.513 -6.769 -8.424 -10.034 -11.093 -11.536 -11.850 -12.559 -13.841 -15.747 -18.371 -21.750 -25.882 -31.080 -38.177 -47.483 -57.481 -65.718 -70.989 -74.359 -77.442 -80.295 -82.663 -84.599 -84.915 -81.969 -75.560 -67.229 -58.518 -48.991 -37.968 -27.158 -18.709 -12.817 -8.792 -6.212 -4.905 -4.751 -5.549 -7.244 -10.061 -14.384 -20.731 -30.823 -43.249 -60.534 -75.383 -85.755 -92.032 -95.189 -98.933 -103.043 -107.127 -112.705 -115.744 -123.630 -157.476 -209.522 -274.418 -428.496 -687.342 -861.110 -957.810 -989.203 -989.816 -1061.245 -1075.045 -1119.950 -1104.564
-3.000 -3.000 -3.003 -3.017 -3.062 -3.169 -3.379 -3.744 -4.328 -5.177 -6.306 -7.700 -9.336 -11.176 -13.099 -14.873 -16.163 -16.507 -15.602 -13.764 -11.858 -10.880 -11.523 -13.576 -15.339 -14.790 -11.959 -8.808 -7.097 -7.321 -8.744 -10.176 -11.044 -11.480 -11.618 -11.327 -10.558 -9.510 -8.398 -7.341 -6.397 -5.578 -4.896 -4.354 -3.949 -3.677 -3.529 -3.486 -3.518 -3.572 -3.610 -3.641 -3.673 -3.668 -3.584 -3.449 -3.378 -3.444 -3.536 -3.476 -3.285 -3.121 -3.045 -3.019 -3.007 -3.011 -3.067 -3.267 -3.692 -4.349 -5.194 -6.173 -7.195 -8.058 -8.531 -8.695 -8.949 -9.422 -9.739 -9.589 -9.151 -8.779 -8.591 -8.514 -8.467 -8.407 -8.331 -8.251 -8.171 -8.090 -8.005 -7.916 -7.823 -7.727 -7.627 -7.524 -7.419 -7.311 -7.200 -7.088 -6.975 -6.863 -6.750 -6.638 -6.527 -6.416 -6.307 -6.199 -6.092 -5.986 -5.881 -5.778 -5.675 -5.572 -5.470 -5.369 -5.267 -5.167 -5.067 -4.968 -4.871 -4.774 -4.679 -4.585 -4.493 -4.403 -4.316 -4.232 -4.152 -4.077 -4.009 -3.947 -3.893 -3.847 -3.813 -3.792 -3.785 -3.794 -3.822 -3.870 -3.939 -4.028 -4.137 -4.263 -4.404 -4.553 -4.708 -4.870 -5.034 -5.191 -5.343 -5.512 -5.718 -5.968 -6.208 -6.288 -6.097 -5.736 -5.411 -5.224 -5.156 -5.146 -5.151 -5.156 -5.155 -5.145 -5.124 -5.093 -5.054 -5.008 -4.955 -4.895 -4.829 -4.758 -4.681 -4.598 -4.512 -4.422 -4.328 -4.232 -4.136 -4.043 -3.958 -3.881 -3.812 -3.748 -3.687 -3.629 -3.576 -3.527 -3.481 -3.435 -3.389 -3.345 -3.302 -3.262 -3.225 -3.194 -3.171 -3.160 -3.163 -3.183 -3.221 -3.281 -3.367 -3.471 -3.558 -3.632 -3.743 -3.932 -4.203 -4.546 -4.918 -5.269 -5.570 -5.779 -5.824 -5.672 -5.363 -4.984 -4.647 -4.498 -4.731 -5.513 -6.750 -7.973 -8.694 -8.852 -8.811 -8.999 -9.653 -10.874 -12.710 -15.215 -18.605 -23.326 -29.917 -38.591 -48.736 -58.600 -66.045 -70.705 -73.857 -76.197 -78.462 -81.591 -84.736 -85.745 -83.238 -77.262 -68.245 -56.321 -42.734 -30.288 -20.900 -14.391 -9.972 -7.310 -6.222 -6.426 -7.578 -9.646 -13.006 -18.223 -25.935 -38.528 -52.613 -69.225 -82.538 -90.985 -96.480 -99.963 -104.094 -107.299 -109.927 -111.643 -115.711 -122.500 -150.103 -202.931 -271.496 -383.258 -522.342 -683.176 -754.577 -805.887 -766.231 -824.067 -890.499 -901.615 -971.472
-3.013 -3.013 -3.048 -3.146 -3.347 -3.689 -4.208 -4.939 -5.933 -7.245 -8.912 -10.912 -13.129 -15.281 -16.885 -17.527 -17.101 -15.673 -13.524 -11.368 -10.149 -10.565 -12.648 -15.257 -16.223 -14.361 -10.894 -7.807 -6.198 -6.279 -7.418 -8.704 -9.867 -11.089 -12.330 -13.210 -13.391 -12.850 -11.790 -10.474 -9.135 -7.906 -6.827 -5.900 -5.122 -4.493 -4.004 -3.649 -3.416 -3.276 -3.196 -3.160 -3.150 -3.142 -3.117 -3.087 -3.084 -3.118 -3.142 -3.112 -3.053 -3.015 -3.003 -3.005 -3.014 -3.031 -3.060 -3.130 -3.292 -3.593 -4.046 -4.614 -5.226 -5.755 -6.065 -6.201 -6.389 -6.701 -6.920 -6.875 -6.702 -6.612 -6.632 -6.689 -6.742 -6.787 -6.823 -6.849 -6.864 -6.869 -6.864 -6.849 -6.826 -6.795 -6.758 -6.714 -6.665 -6.610 -6.550 -6.486 -6.419 -6.348 -6.275 -6.200 -6.124 -6.047 -5.969 -5.891 -5.812 -5.734 -5.656 -5.578 -5.500 -5.422 -5.344 -5.266 -5.189 -5.112 -5.036 -4.961 -4.888 -4.816 -4.747 -4.680 -4.615 -4.554 -4.497 -4.444 -4.397 -4.357 -4.324 -4.299 -4.282 -4.275 -4.277 -4.291 -4.317 -4.358 -4.416 -4.491 -4.584 -4.693 -4.815 -4.945 -5.077 -5.204 -5.316 -5.408 -5.473 -5.507 -5.510 -5.493 -5.470 -5.454 -5.447 -5.410 -5.306 -5.170 -5.070 -5.025 -5.015 -5.023 -5.036 -5.047 -5.056 -5.059 -5.058 -5.052 -5.041 -5.024 -5.002 -4.974 -4.941 -4.901 -4.856 -4.805 -4.748 -4.687 -4.622 -4.553 -4.482 -4.414 -4.350 -4.291 -4.236 -4.182 -4.128 -4.073 -4.019 -3.965 -3.909 -3.850 -3.789 -3.728 -3.666 -3.605 -3.549 -3.499 -3.460 -3.432 -3.419 -3.421 -3.438 -3.471 -3.527 -3.598 -3.652 -3.663 -3.663 -3.706 -3.815 -3.979 -4.181 -4.410 -4.668 -4.935 -5.162 -5.296 -5.303 -5.175 -4.944 -4.713 -4.678 -5.065 -5.897 -6.852 -7.477 -7.547 -7.238 -6.957 -7.048 -7.680 -8.893 -10.711 -13.282 -16.930 -22.080 -29.173 -38.455 -49.114 -58.740 -65.349 -69.228 -71.723 -74.218 -77.638 -81.665 -85.220 -86.767 -84.549 -77.286 -64.736 -49.206 -34.892 -24.184 -16.753 -11.861 -9.154 -8.367 -8.963 -10.525 -13.141 -17.263 -23.568 -35.315 -47.416 -63.364 -78.625 -89.906 -96.864 -101.039 -104.610 -106.833 -106.431 -108.798 -107.742 -110.160 -117.910 -137.873 -181.788 -254.649 -344.741 -440.461 -524.478 -550.400 -567.472 -538.374 -524.792 -575.447 -661.974 -822.986
-3.140 -3.140 -3.290 -3.611 -4.126 -4.844 -5.774 -6.942 -8.411 -10.276 -12.576 -15.117 -17.405 -18.803 -18.813 -17.453 -15.278 -12.883 -10.758 -9.521 -9.800 -11.835 -14.981 -17.308 -16.805 -13.648 -9.857 -6.960 -5.495 -5.487 -6.231 -6.958 -7.782 -9.130 -10.963 -12.882 -14.431 -15.262 -15.211 -14.342 -12.944 -11.358 -9.822 -8.450 -7.264 -6.254 -5.407 -4.713 -4.164 -3.748 -3.452 -3.253 -3.130 -3.062 -3.026 -3.008 -3.004 -3.008 -3.012 -3.009 -3.003 -3.000 -3.003 -3.022 -3.063 -3.121 -3.181 -3.237 -3.310 -3.431 -3.625 -3.882 -4.166 -4.423 -4.597 -4.705 -4.834 -5.012 -5.155 -5.203 -5.212 -5.261 -5.351 -5.449 -5.542 -5.629 -5.708 -5.778 -5.839 -5.890 -5.930 -5.960 -5.980 -5.992 -5.996 -5.993 -5.983 -5.967 -5.944 -5.917 -5.885 -5.849 -5.808 -5.765 -5.719 -5.671 -5.621 -5.570 -5.518 -5.465 -5.412 -5.359 -5.307 -5.254 -5.202 -5.150 -5.098 -5.047 -4.997 -4.949 -4.902 -4.858 -4.817 -4.778 -4.742 -4.710 -4.683 -4.661 -4.644 -4.635 -4.633 -4.638 -4.650 -4.671 -4.700 -4.740 -4.790 -4.851 -4.925 -5.010 -5.104 -5.204 -5.305 -5.401 -5.488 -5.560 -5.611 -5.640 -5.647 -5.631 -5.595 -5.542 -5.476 -5.403 -5.328 -5.254 -5.181 -5.120 -5.082 -5.060 -5.050 -5.047 -5.049 -5.053 -5.057 -5.061 -5.063 -5.064 -5.062 -5.058 -5.050 -5.038 -5.022 -5.001 -4.976 -4.946 -4.912 -4.874 -4.832 -4.787 -4.742 -4.700 -4.662 -4.626 -4.590 -4.554 -4.515 -4.474 -4.431 -4.386 -4.337 -4.283 -4.224 -4.162 -4.099 -4.035 -3.975 -3.919 -3.871 -3.830 -3.798 -3.773 -3.756 -3.747 -3.753 -3.767 -3.765 -3.723 -3.659 -3.620 -3.642 -3.718 -3.828 -3.960 -4.113 -4.286 -4.473 -4.657 -4.814 -4.910 -4.920 -4.860 -4.842 -5.066 -5.644 -6.409 -6.964 -6.988 -6.553 -6.046 -5.773 -5.880 -6.511 -7.753 -9.625 -12.297 -16.156 -21.721 -29.510 -39.440 -49.724 -57.668 -62.504 -65.882 -69.595 -73.835 -77.772 -81.570 -85.410 -87.290 -83.978 -73.309 -57.153 -41.021 -28.634 -20.120 -14.651 -11.933 -11.521 -12.530 -14.533 -17.908 -23.187 -33.343 -44.062 -58.399 -75.216 -89.057 -97.080 -101.896 -104.209 -106.102 -105.225 -103.452 -104.281 -104.111 -105.189 -109.705 -124.310 -160.601 -222.125 -288.783 -360.472 -386.466 -408.593 -379.329 -309.492 -347.153 -355.845 -399.844 -515.594
-3.648 -3.648 -4.002 -4.671 -5.611 -6.795 -8.218 -9.922 -11.978 -14.433 -17.106 -19.359 -20.363 -19.711 -17.640 -14.838 -12.087 -9.937 -8.765 -8.974 -10.839 -14.169 -17.677 -18.977 -16.825 -12.743 -8.939 -6.300 -5.055 -5.164 -5.769 -6.019 -6.203 -7.027 -8.615 -10.700 -12.994 -15.175 -16.800 -17.470 -17.063 -15.766 -13.990 -12.143 -10.446 -8.971 -7.714 -6.644 -5.741 -4.994 -4.393 -3.923 -3.574 -3.333 -3.175 -3.082 -3.033 -3.010 -3.002 -3.000 -3.000 -3.000 -3.007 -3.046 -3.131 -3.246 -3.354 -3.439 -3.499 -3.550 -3.604 -3.669 -3.742 -3.817 -3.884 -3.949 -4.025 -4.118 -4.212 -4.293 -4.372 -4.461 -4.557 -4.652 -4.744 -4.833 -4.919 -4.999 -5.074 -5.141 -5.201 -5.253 -5.296 -5.332 -5.361 -5.383 -5.398 -5.407 -5.411 -5.410 -5.404 -5.394 -5.379 -5.362 -5.341 -5.318 -5.293 -5.267 -5.240 -5.212 -5.183 -5.155 -5.127 -5.099 -5.071 -5.044 -5.018 -4.992 -4.968 -4.945 -4.924 -4.905 -4.888 -4.875 -4.864 -4.857 -4.854 -4.857 -4.864 -4.878 -4.897 -4.923 -4.954 -4.993 -5.039 -5.092 -5.152 -5.218 -5.290 -5.365 -5.439 -5.510 -5.573 -5.626 -5.667 -5.695 -5.707 -5.706 -5.691 -5.663 -5.623 -5.573 -5.516 -5.452 -5.384 -5.314 -5.251 -5.201 -5.167 -5.144 -5.129 -5.119 -5.114 -5.111 -5.111 -5.111 -5.113 -5.115 -5.116 -5.116 -5.115 -5.111 -5.105 -5.095 -5.082 -5.066 -5.047 -5.025 -5.000 -4.975 -4.951 -4.931 -4.913 -4.896 -4.879 -4.859 -4.836 -4.810 -4.782 -4.751 -4.716 -4.675 -4.628 -4.577 -4.525 -4.472 -4.421 -4.373 -4.328 -4.285 -4.243 -4.202 -4.159 -4.117 -4.077 -4.036 -3.976 -3.882 -3.765 -3.664 -3.614 -3.621 -3.668 -3.738 -3.821 -3.915 -4.018 -4.136 -4.272 -4.420 -4.560 -4.674 -4.796 -5.074 -5.663 -6.424 -6.909 -6.817 -6.327 -5.791 -5.318 -4.989 -5.114 -5.868 -7.156 -9.068 -12.016 -16.479 -22.907 -31.547 -41.385 -49.777 -55.106 -58.869 -63.496 -69.078 -73.719 -77.181 -80.996 -84.923 -85.821 -79.397 -65.108 -48.400 -34.588 -24.843 -18.612 -15.735 -15.685 -17.230 -19.834 -24.173 -31.980 -42.640 -55.070 -71.107 -87.151 -97.795 -102.824 -104.069 -104.522 -103.727 -102.262 -100.952 -100.815 -101.771 -102.528 -103.610 -111.391 -146.210 -191.847 -243.059 -274.593 -288.393 -273.167 -230.703 -169.623 -234.356 -273.615 -301.030 -308.451
-4.833 -4.833 -5.432 -6.508 -7.948 -9.703 -11.771 -14.151 -16.730 -19.214 -21.054 -21.504 -20.174 -17.505 -14.362 -11.446 -9.211 -8.008 -8.148 -9.819 -13.006 -17.108 -20.147 -19.802 -16.177 -11.682 -8.091 -5.743 -4.772 -5.129 -5.848 -5.884 -5.459 -5.523 -6.462 -8.088 -10.227 -12.785 -15.500 -17.910 -19.446 -19.694 -18.720 -16.955 -14.886 -12.878 -11.087 -9.537 -8.209 -7.080 -6.123 -5.323 -4.667 -4.142 -3.738 -3.448 -3.251 -3.124 -3.054 -3.021 -3.006 -3.001 -3.009 -3.055 -3.158 -3.299 -3.433 -3.535 -3.597 -3.624 -3.628 -3.621 -3.610 -3.602 -3.603 -3.616 -3.643 -3.684 -3.740 -3.807 -3.882 -3.963 -4.045 -4.128 -4.209 -4.289 -4.368 -4.444 -4.516 -4.585 -4.648 -4.707 -4.759 -4.807 -4.848 -4.883 -4.914 -4.939 -4.960 -4.977 -4.990 -5.000 -5.006 -5.008 -5.009 -5.007 -5.004 -4.999 -4.993 -4.987 -4.981 -4.975 -4.968 -4.962 -4.957 -4.952 -4.948 -4.945 -4.942 -4.941 -4.941 -4.943 -4.948 -4.954 -4.963 -4.975 -4.992 -5.012 -5.037 -5.067 -5.102 -5.141 -5.185 -5.234 -5.287 -5.344 -5.402 -5.460 -5.516 -5.569 -5.616 -5.656 -5.687 -5.711 -5.725 -5.732 -5.730 -5.719 -5.700 -5.673 -5.638 -5.596 -5.549 -5.497 -5.442 -5.385 -5.329 -5.283 -5.249 -5.226 -5.210 -5.198 -5.189 -5.183 -5.180 -5.178 -5.178 -5.179 -5.181 -5.183 -5.185 -5.186 -5.185 -5.182 -5.178 -5.171 -5.162 -5.151 -5.139 -5.130 -5.123 -5.119 -5.117 -5.116 -5.114 -5.110 -5.103 -5.093 -5.080 -5.064 -5.045 -5.020 -4.990 -4.956 -4.920 -4.885 -4.850 -4.816 -4.781 -4.745 -4.706 -4.661 -4.611 -4.552 -4.486 -4.409 -4.309 -4.176 -4.016 -3.859 -3.739 -3.671 -3.650 -3.661 -3.692 -3.735 -3.784 -3.838 -3.907 -4.001 -4.125 -4.275 -4.461 -4.793 -5.440 -6.256 -6.711 -6.573 -6.171 -5.721 -5.113 -4.479 -4.264 -4.647 -5.500 -6.924 -9.298 -12.993 -18.374 -25.872 -35.096 -43.769 -49.633 -53.398 -57.637 -63.203 -68.581 -72.692 -76.187 -79.904 -82.794 -80.833 -71.147 -56.683 -42.593 -31.515 -24.005 -20.370 -20.332 -22.633 -26.447 -32.254 -40.898 -54.122 -68.641 -84.041 -96.645 -103.181 -104.587 -103.527 -102.421 -100.873 -99.490 -98.446 -98.259 -98.549 -98.128 -97.728 -103.842 -126.603 -159.914 -178.698 -194.245 -175.765 -142.140 -112.609 -109.419 -166.957 -225.867 -257.290 -267.960
-6.867 -6.867 -7.740 -9.293 -11.362 -13.865 -16.686 -19.509 -21.723 -22.710 -22.175 -20.142 -17.070 -13.764 -10.858 -8.651 -7.400 -7.422 -8.912 -11.863 -16.048 -20.273 -21.988 -19.681 -14.991 -10.520 -7.271 -5.236 -4.552 -5.151 -6.034 -6.027 -5.201 -4.610 -4.898 -5.960 -7.581 -9.725 -12.400 -15.471 -18.487 -20.781 -21.850 -21.538 -20.069 -17.952 -15.702 -13.619 -11.778 -10.168 -8.775 -7.584 -6.570 -5.704 -4.982 -4.401 -3.941 -3.593 -3.350 -3.191 -3.092 -3.038 -3.019 -3.043 -3.121 -3.239 -3.360 -3.460 -3.527 -3.560 -3.567 -3.556 -3.534 -3.507 -3.482 -3.464 -3.456 -3.462 -3.482 -3.518 -3.568 -3.628 -3.694 -3.764 -3.835 -3.906 -3.976 -4.044 -4.110 -4.174 -4.235 -4.293 -4.347 -4.397 -4.444 -4.487 -4.525 -4.560 -4.592 -4.621 -4.648 -4.671 -4.692 -4.711 -4.728 -4.743 -4.757 -4.770 -4.782 -4.794 -4.806 -4.818 -4.829 -4.841 -4.854 -4.868 -4.882 -4.896 -4.912 -4.928 -4.945 -4.964 -4.984 -5.007 -5.031 -5.058 -5.089 -5.123 -5.161 -5.203 -5.248 -5.295 -5.346 -5.397 -5.449 -5.500 -5.547 -5.589 -5.626 -5.658 -5.684 -5.704 -5.719 -5.728 -5.732 -5.731 -5.725 -5.713 -5.695 -5.671 -5.642 -5.608 -5.570 -5.529 -5.485 -5.439 -5.392 -5.350 -5.318 -5.295 -5.280 -5.268 -5.259 -5.253 -5.248 -5.245 -5.244 -5.245 -5.247 -5.250 -5.253 -5.256 -5.259 -5.261 -5.261 -5.260 -5.258 -5.256 -5.255 -5.256 -5.261 -5.270 -5.280 -5.291 -5.301 -5.310 -5.316 -5.321 -5.323 -5.324 -5.321 -5.314 -5.304 -5.292 -5.278 -5.263 -5.247 -5.230 -5.211 -5.187 -5.158 -5.120 -5.073 -5.014 -4.942 -4.852 -4.737 -4.589 -4.409 -4.217 -4.042 -3.904 -3.807 -3.746 -3.713 -3.703 -3.709 -3.725 -3.749 -3.784 -3.840 -3.927 -4.060 -4.313 -4.811 -5.452 -5.818 -5.810 -5.748 -5.615 -5.117 -4.411 -3.975 -3.999 -4.463 -5.545 -7.534 -10.663 -15.241 -21.781 -30.384 -39.500 -46.646 -51.156 -54.552 -58.366 -63.020 -68.056 -72.684 -76.612 -79.674 -80.174 -75.710 -65.918 -53.099 -40.587 -30.975 -25.529 -24.776 -28.014 -33.845 -41.614 -52.920 -67.903 -83.102 -95.331 -102.022 -104.291 -102.652 -100.251 -98.050 -97.049 -96.083 -94.917 -94.765 -93.496 -92.204 -89.952 -94.884 -96.054 -108.199 -98.281 -102.475 -68.769 -77.484 -45.359 -58.727 -114.228 -179.456 -256.200 -302.560
-9.923 -9.923 -11.140 -13.315 -16.181 -19.401 -22.404 -24.372 -24.529 -22.770 -19.765 -16.316 -13.009 -10.219 -8.121 -6.886 -6.806 -8.108 -10.814 -14.867 -19.716 -23.259 -22.902 -18.752 -13.552 -9.362 -6.479 -4.765 -4.360 -5.143 -6.121 -6.118 -5.113 -4.132 -3.923 -4.485 -5.590 -7.160 -9.244 -11.899 -15.036 -18.345 -21.335 -23.363 -23.881 -22.892 -20.965 -18.716 -16.480 -14.390 -12.516 -10.870 -9.421 -8.150 -7.058 -6.134 -5.355 -4.706 -4.184 -3.780 -3.481 -3.274 -3.143 -3.082 -3.084 -3.135 -3.212 -3.291 -3.359 -3.407 -3.434 -3.441 -3.432 -3.413 -3.390 -3.367 -3.348 -3.334 -3.331 -3.340 -3.362 -3.397 -3.443 -3.498 -3.557 -3.620 -3.683 -3.745 -3.807 -3.867 -3.925 -3.981 -4.034 -4.085 -4.134 -4.180 -4.223 -4.263 -4.302 -4.338 -4.373 -4.406 -4.437 -4.467 -4.496 -4.524 -4.550 -4.577 -4.603 -4.628 -4.654 -4.680 -4.706 -4.732 -4.759 -4.787 -4.815 -4.843 -4.872 -4.902 -4.933 -4.964 -4.997 -5.032 -5.068 -5.107 -5.149 -5.194 -5.241 -5.290 -5.341 -5.391 -5.440 -5.487 -5.531 -5.570 -5.604 -5.632 -5.656 -5.675 -5.691 -5.702 -5.710 -5.714 -5.715 -5.712 -5.705 -5.694 -5.679 -5.659 -5.636 -5.610 -5.580 -5.548 -5.513 -5.476 -5.438 -5.402 -5.372 -5.351 -5.337 -5.326 -5.318 -5.312 -5.308 -5.305 -5.304 -5.305 -5.307 -5.311 -5.315 -5.320 -5.324 -5.329 -5.333 -5.336 -5.340 -5.344 -5.350 -5.360 -5.373 -5.390 -5.409 -5.428 -5.447 -5.466 -5.483 -5.499 -5.513 -5.527 -5.540 -5.551 -5.561 -5.571 -5.580 -5.588 -5.594 -5.599 -5.600 -5.595 -5.582 -5.560 -5.526 -5.477 -5.412 -5.327 -5.217 -5.075 -4.900 -4.703 -4.505 -4.323 -4.167 -4.036 -3.928 -3.845 -3.789 -3.758 -3.747 -3.749 -3.759 -3.781 -3.828 -3.935 -4.158 -4.446 -4.632 -4.789 -5.142 -5.520 -5.476 -4.952 -4.351 -3.995 -4.033 -4.733 -6.342 -8.989 -12.907 -18.555 -26.339 -35.560 -44.031 -49.941 -53.387 -55.785 -58.930 -63.887 -70.094 -75.894 -79.793 -81.328 -80.319 -75.282 -65.054 -51.790 -39.496 -31.306 -29.070 -33.207 -41.397 -52.065 -65.998 -82.424 -96.154 -102.267 -103.009 -101.238 -98.451 -95.009 -92.681 -91.844 -90.440 -89.240 -88.408 -87.630 -82.376 -76.953 -68.550 -56.982 -30.648 -29.871 -37.220 -30.043 -30.839 -22.577 -30.501 -66.503 -136.609 -217.172 -293.122
-14.370 -14.370 -16.018 -18.865 -22.234 -25.164 -26.619 -25.982 -23.316 -19.452 -15.517 -12.163 -9.513 -7.554 -6.386 -6.251 -7.378 -9.833 -13.630 -18.655 -23.605 -25.546 -22.793 -17.308 -12.101 -8.304 -5.759 -4.348 -4.199 -5.123 -6.143 -6.140 -5.084 -3.940 -3.436 -3.601 -4.248 -5.302 -6.780 -8.726 -11.195 -14.228 -17.748 -21.306 -24.067 -25.338 -25.040 -23.588 -21.523 -19.299 -17.164 -15.167 -13.300 -11.597 -10.091 -8.776 -7.627 -6.627 -5.773 -5.056 -4.468 -3.998 -3.641 -3.387 -3.225 -3.143 -3.125 -3.146 -3.186 -3.231 -3.269 -3.293 -3.300 -3.296 -3.286 -3.271 -3.256 -3.241 -3.231 -3.226 -3.231 -3.245 -3.270 -3.305 -3.349 -3.400 -3.456 -3.513 -3.572 -3.629 -3.686 -3.741 -3.795 -3.847 -3.897 -3.945 -3.991 -4.035 -4.077 -4.118 -4.157 -4.196 -4.233 -4.270 -4.306 -4.342 -4.378 -4.413 -4.449 -4.485 -4.521 -4.558 -4.594 -4.631 -4.669 -4.707 -4.746 -4.785 -4.825 -4.865 -4.905 -4.947 -4.989 -5.033 -5.079 -5.127 -5.178 -5.229 -5.281 -5.333 -5.382 -5.429 -5.473 -5.512 -5.546 -5.576 -5.601 -5.622 -5.640 -5.654 -5.665 -5.674 -5.679 -5.682 -5.682 -5.680 -5.674 -5.665 -5.653 -5.638 -5.621 -5.601 -5.578 -5.553 -5.526 -5.497 -5.467 -5.438 -5.412 -5.393 -5.380 -5.371 -5.365 -5.360 -5.356 -5.355 -5.354 -5.356 -5.359 -5.363 -5.368 -5.374 -5.380 -5.386 -5.393 -5.399 -5.407 -5.416 -5.428 -5.444 -5.463 -5.486 -5.510 -5.536 -5.561 -5.586 -5.611 -5.635 -5.659 -5.683 -5.708 -5.734 -5.761 -5.789 -5.817 -5.846 -5.874 -5.901 -5.925 -5.944 -5.955 -5.956 -5.944 -5.916 -5.871 -5.805 -5.715 -5.594 -5.441 -5.262 -5.070 -4.879 -4.697 -4.525 -4.361 -4.208 -4.074 -3.967 -3.894 -3.851 -3.831 -3.822 -3.821 -3.831 -3.859 -3.872 -3.876 -4.071 -4.675 -5.517 -5.999 -5.746 -5.110 -4.564 -4.292 -4.539 -5.613 -7.707 -10.996 -15.784 -22.447 -30.710 -39.003 -45.580 -50.010 -53.048 -56.086 -60.702 -67.526 -75.127 -80.876 -83.607 -84.263 -82.693 -76.177 -63.816 -49.397 -38.296 -34.338 -38.955 -49.276 -62.800 -78.738 -94.667 -103.712 -103.454 -99.630 -96.436 -93.126 -89.293 -86.477 -84.725 -81.987 -81.116 -77.546 -77.525 -61.150 -53.728 -35.519 -21.559 -19.627 -18.617 -18.199 -18.223 -18.694 -19.704 -21.313 -23.355 -50.455 -26.589 -26.589
-20.733 -20.733 -22.610 -25.369 -27.686 -28.312 -26.690 -23.290 -19.058 -14.905 -11.450 -8.841 -6.982 -5.884 -5.734 -6.727 -8.934 -12.404 -17.269 -23.017 -27.165 -26.676 -21.755 -15.657 -10.768 -7.375 -5.147 -4.021 -4.110 -5.161 -6.199 -6.169 -5.083 -3.890 -3.263 -3.187 -3.471 -4.070 -5.019 -6.351 -8.119 -10.432 -13.407 -16.991 -20.759 -23.981 -25.962 -26.371 -25.431 -23.732 -21.777 -19.759 -17.746 -15.818 -14.019 -12.345 -10.805 -9.423 -8.206 -7.148 -6.232 -5.451 -4.796 -4.256 -3.828 -3.517 -3.310 -3.186 -3.129 -3.118 -3.130 -3.149 -3.163 -3.170 -3.170 -3.167 -3.160 -3.152 -3.145 -3.140 -3.139 -3.143 -3.153 -3.172 -3.200 -3.237 -3.281 -3.331 -3.385 -3.440 -3.496 -3.552 -3.606 -3.659 -3.710 -3.760 -3.809 -3.856 -3.902 -3.946 -3.989 -4.031 -4.073 -4.114 -4.155 -4.196 -4.237 -4.279 -4.320 -4.363 -4.406 -4.449 -4.493 -4.537 -4.582 -4.628 -4.674 -4.721 -4.769 -4.817 -4.865 -4.915 -4.965 -5.017 -5.070 -5.124 -5.178 -5.231 -5.283 -5.332 -5.377 -5.418 -5.455 -5.488 -5.517 -5.542 -5.563 -5.581 -5.597 -5.609 -5.620 -5.628 -5.634 -5.637 -5.638 -5.637 -5.634 -5.628 -5.620 -5.609 -5.596 -5.582 -5.566 -5.548 -5.527 -5.506 -5.482 -5.459 -5.438 -5.422 -5.411 -5.404 -5.399 -5.395 -5.393 -5.392 -5.393 -5.396 -5.399 -5.404 -5.411 -5.418 -5.425 -5.433 -5.442 -5.451 -5.461 -5.474 -5.490 -5.511 -5.534 -5.561 -5.589 -5.618 -5.648 -5.678 -5.708 -5.738 -5.769 -5.801 -5.835 -5.872 -5.911 -5.952 -5.995 -6.039 -6.084 -6.130 -6.174 -6.215 -6.251 -6.279 -6.295 -6.297 -6.284 -6.251 -6.194 -6.108 -5.991 -5.846 -5.682 -5.508 -5.332 -5.155 -4.972 -4.783 -4.592 -4.411 -4.253 -4.128 -4.042 -3.990 -3.961 -3.942 -3.907 -3.819 -3.719 -3.845 -4.500 -5.600 -6.439 -6.484 -6.083 -5.683 -5.290 -5.051 -5.410 -6.780 -9.369 -13.270 -18.534 -24.816 -31.191 -36.899 -41.966 -46.789 -51.747 -57.550 -64.911 -73.173 -80.211 -84.393 -86.348 -87.183 -84.568 -75.055 -60.608 -47.936 -42.829 -47.286 -59.124 -74.715 -90.913 -103.371 -105.668 -100.265 -95.086 -91.928 -87.493 -82.104 -78.062 -74.609 -70.807 -66.476 -62.552 -49.679 -22.288 -20.449 -16.809 -14.291 -12.681 -11.740 -11.280 -11.202 -11.486 -12.146 -13.171 -14.430 -15.631 -16.379 -16.379
-28.387 -28.387 -29.499 -30.275 -29.481 -26.773 -22.680 -18.243 -14.223 -10.897 -8.324 -6.487 -5.412 -5.245 -6.136 -8.143 -11.307 -15.799 -21.670 -27.476 -29.756 -26.514 -20.080 -13.996 -9.570 -6.559 -4.650 -3.834 -4.193 -5.396 -6.423 -6.282 -5.107 -3.883 -3.226 -3.053 -3.124 -3.380 -3.882 -4.703 -5.911 -7.578 -9.796 -12.642 -16.081 -19.848 -23.377 -25.914 -26.949 -26.584 -25.318 -23.624 -21.795 -19.969 -18.161 -16.358 -14.600 -12.941 -11.410 -10.021 -8.776 -7.673 -6.704 -5.853 -5.124 -4.522 -4.039 -3.667 -3.408 -3.240 -3.142 -3.095 -3.078 -3.073 -3.074 -3.075 -3.074 -3.073 -3.070 -3.068 -3.068 -3.069 -3.074 -3.083 -3.099 -3.123 -3.154 -3.193 -3.238 -3.289 -3.342 -3.397 -3.452 -3.506 -3.559 -3.611 -3.662 -3.712 -3.761 -3.808 -3.854 -3.900 -3.945 -3.990 -4.034 -4.079 -4.124 -4.169 -4.214 -4.260 -4.307 -4.354 -4.403 -4.451 -4.501 -4.551 -4.603 -4.655 -4.708 -4.762 -4.816 -4.871 -4.927 -4.984 -5.040 -5.096 -5.151 -5.202 -5.250 -5.295 -5.335 -5.372 -5.405 -5.435 -5.461 -5.485 -5.505 -5.522 -5.538 -5.551 -5.562 -5.571 -5.578 -5.583 -5.586 -5.587 -5.586 -5.583 -5.579 -5.572 -5.564 -5.555 -5.544 -5.532 -5.518 -5.502 -5.485 -5.467 -5.450 -5.437 -5.429 -5.425 -5.422 -5.420 -5.419 -5.419 -5.421 -5.425 -5.430 -5.436 -5.443 -5.451 -5.460 -5.469 -5.479 -5.490 -5.503 -5.519 -5.539 -5.562 -5.589 -5.618 -5.649 -5.681 -5.714 -5.747 -5.780 -5.814 -5.850 -5.888 -5.929 -5.974 -6.022 -6.072 -6.125 -6.180 -6.236 -6.294 -6.353 -6.411 -6.466 -6.516 -6.559 -6.592 -6.614 -6.620 -6.607 -6.569 -6.502 -6.407 -6.289 -6.155 -6.009 -5.854 -5.687 -5.501 -5.298 -5.082 -4.863 -4.655 -4.473 -4.330 -4.231 -4.168 -4.115 -4.028 -3.916 -3.968 -4.521 -5.603 -6.613 -7.093 -7.299 -7.307 -6.836 -6.110 -5.782 -6.386 -8.135 -10.977 -14.687 -18.805 -22.894 -26.994 -31.622 -37.316 -44.268 -52.419 -61.447 -70.445 -78.027 -83.164 -86.296 -88.684 -89.070 -83.888 -73.000 -61.875 -56.950 -61.569 -73.991 -89.297 -102.625 -108.623 -105.130 -97.413 -92.009 -86.987 -80.023 -72.876 -66.987 -61.338 -57.876 -49.550 -41.727 -27.816 -17.589 -14.079 -11.443 -9.567 -8.319 -7.559 -7.167 -7.069 -7.236 -7.655 -8.298 -9.074 -9.811 -10.271 -10.271
-33.649 -33.649 -32.838 -30.423 -26.447 -21.765 -17.217 -13.344 -10.269 -7.879 -6.107 -5.023 -4.798 -5.577 -7.403 -10.312 -14.463 -20.088 -26.647 -31.399 -30.885 -25.229 -18.143 -12.445 -8.492 -5.840 -4.265 -3.810 -4.507 -5.913 -6.899 -6.529 -5.166 -3.889 -3.225 -3.028 -3.019 -3.090 -3.284 -3.695 -4.426 -5.554 -7.127 -9.196 -11.821 -15.050 -18.782 -22.546 -25.557 -27.175 -27.306 -26.359 -24.898 -23.293 -21.652 -19.975 -18.281 -16.598 -14.947 -13.359 -11.860 -10.475 -9.221 -8.096 -7.097 -6.221 -5.453 -4.798 -4.263 -3.841 -3.526 -3.312 -3.174 -3.092 -3.050 -3.032 -3.024 -3.022 -3.022 -3.022 -3.022 -3.023 -3.025 -3.029 -3.038 -3.051 -3.070 -3.095 -3.129 -3.170 -3.217 -3.269 -3.323 -3.378 -3.433 -3.487 -3.540 -3.592 -3.643 -3.694 -3.743 -3.792 -3.839 -3.887 -3.934 -3.982 -4.029 -4.077 -4.125 -4.174 -4.223 -4.273 -4.324 -4.375 -4.428 -4.481 -4.535 -4.591 -4.647 -4.705 -4.762 -4.820 -4.878 -4.936 -4.992 -5.046 -5.098 -5.146 -5.191 -5.232 -5.270 -5.305 -5.336 -5.365 -5.391 -5.414 -5.434 -5.452 -5.469 -5.483 -5.495 -5.506 -5.515 -5.521 -5.527 -5.530 -5.532 -5.532 -5.531 -5.529 -5.525 -5.520 -5.515 -5.507 -5.499 -5.488 -5.477 -5.464 -5.451 -5.442 -5.437 -5.434 -5.434 -5.434 -5.434 -5.436 -5.439 -5.444 -5.450 -5.457 -5.465 -5.474 -5.484 -5.495 -5.506 -5.519 -5.535 -5.553 -5.575 -5.600 -5.629 -5.659 -5.692 -5.726 -5.761 -5.796 -5.832 -5.869 -5.908 -5.951 -5.997 -6.047 -6.101 -6.157 -6.216 -6.278 -6.342 -6.408 -6.476 -6.544 -6.612 -6.678 -6.740 -6.797 -6.848 -6.889 -6.918 -6.929 -6.917 -6.882 -6.826 -6.751 -6.661 -6.555 -6.431 -6.282 -6.105 -5.902 -5.675 -5.432 -5.182 -4.942 -4.729 -4.558 -4.426 -4.312 -4.205 -4.199 -4.544 -5.373 -6.419 -7.443 -8.447 -8.985 -8.498 -7.395 -6.621 -6.673 -7.537 -9.097 -11.233 -13.651 -16.144 -18.934 -22.598 -27.836 -35.211 -44.790 -55.770 -66.500 -75.140 -80.809 -84.326 -87.129 -89.158 -88.597 -84.140 -77.787 -74.915 -79.998 -91.698 -103.431 -109.982 -108.952 -102.278 -94.517 -87.972 -79.767 -70.109 -61.308 -53.958 -48.451 -41.016 -31.570 -28.946 -15.281 -12.182 -9.733 -7.861 -6.506 -5.597 -5.050 -4.774 -4.699 -4.787 -5.028 -5.410 -5.880 -6.331 -6.616 -6.616
-32.501 -32.501 -30.033 -25.695 -20.716 -16.168 -12.457 -9.577 -7.385 -5.753 -4.707 -4.420 -5.063 -6.690 -9.335 -13.161 -18.436 -25.126 -31.588 -34.119 -30.519 -23.227 -16.202 -11.051 -7.536 -5.222 -3.983 -3.897 -4.936 -6.556 -7.494 -6.856 -5.266 -3.914 -3.235 -3.028 -3.001 -3.012 -3.058 -3.204 -3.553 -4.211 -5.240 -6.673 -8.555 -10.986 -14.081 -17.809 -21.764 -25.179 -27.292 -27.825 -27.126 -25.815 -24.329 -22.818 -21.297 -19.757 -18.191 -16.610 -15.036 -13.507 -12.063 -10.730 -9.514 -8.415 -7.418 -6.524 -5.735 -5.052 -4.478 -4.016 -3.660 -3.401 -3.225 -3.114 -3.052 -3.022 -3.009 -3.004 -3.003 -3.004 -3.004 -3.006 -3.009 -3.014 -3.022 -3.036 -3.056 -3.084 -3.121 -3.166 -3.216 -3.269 -3.324 -3.380 -3.435 -3.489 -3.543 -3.596 -3.648 -3.699 -3.749 -3.799 -3.848 -3.898 -3.948 -3.997 -4.048 -4.098 -4.150 -4.202 -4.254 -4.308 -4.362 -4.417 -4.474 -4.531 -4.589 -4.648 -4.706 -4.763 -4.820 -4.875 -4.928 -4.979 -5.027 -5.072 -5.114 -5.154 -5.191 -5.225 -5.256 -5.285 -5.311 -5.335 -5.356 -5.376 -5.393 -5.409 -5.423 -5.436 -5.446 -5.455 -5.463 -5.468 -5.473 -5.477 -5.479 -5.480 -5.481 -5.480 -5.478 -5.475 -5.471 -5.466 -5.459 -5.451 -5.443 -5.436 -5.433 -5.434 -5.436 -5.438 -5.440 -5.444 -5.448 -5.454 -5.461 -5.469 -5.478 -5.488 -5.499 -5.511 -5.524 -5.538 -5.556 -5.576 -5.600 -5.626 -5.656 -5.688 -5.721 -5.756 -5.792 -5.829 -5.866 -5.906 -5.948 -5.993 -6.043 -6.096 -6.153 -6.214 -6.277 -6.343 -6.411 -6.482 -6.555 -6.630 -6.705 -6.781 -6.856 -6.929 -6.999 -7.065 -7.124 -7.172 -7.207 -7.227 -7.233 -7.227 -7.207 -7.172 -7.118 -7.036 -6.922 -6.771 -6.585 -6.364 -6.110 -5.831 -5.537 -5.245 -4.975 -4.741 -4.552 -4.449 -4.563 -5.082 -6.090 -7.530 -9.122 -10.104 -9.746 -8.435 -7.379 -7.179 -7.484 -7.953 -8.734 -9.909 -11.369 -13.263 -16.065 -20.417 -26.998 -36.257 -47.925 -60.457 -71.160 -78.052 -81.669 -83.913 -86.059 -88.245 -89.101 -87.567 -86.644 -91.589 -101.258 -107.929 -107.306 -101.764 -94.837 -87.989 -79.853 -69.314 -58.944 -49.753 -41.581 -35.262 -24.824 -19.737 -16.948 -10.572 -8.462 -6.788 -5.507 -4.596 -4.014 -3.690 -3.542 -3.503 -3.539 -3.650 -3.841 -4.092 -4.338 -4.495 -4.495
-25.939 -25.939 -23.274 -19.207 -15.097 -11.626 -8.917 -6.876 -5.384 -4.415 -4.098 -4.609 -6.030 -8.395 -11.858 -16.716 -23.150 -30.353 -35.478 -35.032 -28.924 -20.956 -14.388 -9.800 -6.693 -4.705 -3.779 -3.989 -5.270 -7.038 -7.950 -7.128 -5.371 -3.952 -3.250 -3.031 -3.000 -3.000 -3.006 -3.037 -3.152 -3.446 -4.014 -4.918 -6.209 -7.959 -10.281 -13.300 -17.020 -21.124 -24.894 -27.455 -28.324 -27.779 -26.535 -25.120 -23.702 -22.285 -20.856 -19.400 -17.916 -16.416 -14.929 -13.488 -12.121 -10.848 -9.675 -8.603 -7.628 -6.747 -5.959 -5.265 -4.671 -4.180 -3.789 -3.494 -3.288 -3.153 -3.071 -3.029 -3.009 -3.002 -3.000 -3.000 -3.001 -3.002 -3.004 -3.008 -3.017 -3.031 -3.055 -3.087 -3.129 -3.177 -3.230 -3.285 -3.342 -3.398 -3.454 -3.509 -3.563 -3.616 -3.669 -3.720 -3.772 -3.823 -3.875 -3.926 -3.978 -4.031 -4.084 -4.137 -4.192 -4.247 -4.303 -4.360 -4.417 -4.475 -4.533 -4.590 -4.646 -4.701 -4.755 -4.806 -4.856 -4.903 -4.948 -4.991 -5.031 -5.069 -5.105 -5.138 -5.170 -5.199 -5.226 -5.250 -5.273 -5.294 -5.313 -5.331 -5.347 -5.361 -5.374 -5.385 -5.395 -5.404 -5.411 -5.417 -5.423 -5.428 -5.431 -5.434 -5.436 -5.437 -5.437 -5.436 -5.433 -5.429 -5.425 -5.422 -5.421 -5.424 -5.428 -5.433 -5.438 -5.443 -5.448 -5.455 -5.463 -5.472 -5.483 -5.494 -5.505 -5.518 -5.532 -5.549 -5.568 -5.589 -5.614 -5.642 -5.672 -5.705 -5.739 -5.774 -5.811 -5.848 -5.887 -5.928 -5.972 -6.019 -6.070 -6.126 -6.185 -6.247 -6.312 -6.380 -6.451 -6.524 -6.600 -6.678 -6.758 -6.839 -6.921 -7.004 -7.086 -7.167 -7.244 -7.317 -7.383 -7.442 -7.496 -7.544 -7.589 -7.626 -7.652 -7.658 -7.634 -7.573 -7.470 -7.323 -7.128 -6.882 -6.588 -6.252 -5.885 -5.514 -5.169 -4.894 -4.775 -5.000 -5.834 -7.351 -9.160 -10.394 -10.207 -8.791 -7.484 -7.235 -7.611 -7.826 -7.863 -8.031 -8.484 -9.516 -11.580 -15.105 -20.570 -28.516 -39.305 -52.319 -65.018 -74.175 -78.859 -80.748 -82.075 -84.221 -86.439 -86.836 -86.602 -89.860 -96.179 -99.010 -95.834 -90.014 -84.161 -77.545 -68.894 -58.522 -48.453 -38.562 -30.235 -23.371 -14.873 -11.563 -9.148 -7.335 -5.934 -4.854 -4.067 -3.557 -3.273 -3.139 -3.087 -3.075 -3.084 -3.118 -3.185 -3.278 -3.372 -3.433 -3.433
-18.470 -18.470 -16.518 -13.629 -10.758 -8.317 -6.413 -5.029 -4.143 -3.824 -4.221 -5.444 -7.541 -10.645 -15.038 -21.017 -28.301 -34.997 -37.651 -34.167 -26.523 -18.677 -12.739 -8.670 -5.941 -4.266 -3.613 -4.023 -5.419 -7.248 -8.155 -7.262 -5.435 -3.981 -3.261 -3.033 -3.000 -3.000 -3.000 -3.003 -3.025 -3.113 -3.347 -3.818 -4.613 -5.810 -7.485 -9.740 -12.699 -16.436 -20.770 -25.002 -27.999 -29.023 -28.435 -27.162 -25.780 -24.418 -23.070 -21.723 -20.363 -18.980 -17.573 -16.153 -14.744 -13.374 -12.072 -10.856 -9.734 -8.705 -7.763 -6.904 -6.128 -5.437 -4.834 -4.324 -3.911 -3.589 -3.354 -3.194 -3.095 -3.041 -3.015 -3.004 -3.001 -3.000 -3.000 -3.001 -3.003 -3.008 -3.018 -3.036 -3.064 -3.103 -3.150 -3.202 -3.257 -3.314 -3.372 -3.429 -3.485 -3.540 -3.595 -3.648 -3.702 -3.755 -3.808 -3.861 -3.915 -3.968 -4.023 -4.078 -4.134 -4.190 -4.247 -4.304 -4.362 -4.418 -4.474 -4.529 -4.583 -4.635 -4.685 -4.733 -4.780 -4.825 -4.868 -4.909 -4.947 -4.984 -5.019 -5.052 -5.083 -5.112 -5.139 -5.164 -5.188 -5.210 -5.231 -5.250 -5.268 -5.285 -5.300 -5.313 -5.325 -5.336 -5.346 -5.356 -5.364 -5.372 -5.379 -5.385 -5.390 -5.394 -5.398 -5.400 -5.401 -5.401 -5.400 -5.400 -5.402 -5.407 -5.413 -5.420 -5.427 -5.434 -5.441 -5.449 -5.458 -5.468 -5.479 -5.491 -5.504 -5.518 -5.533 -5.551 -5.571 -5.594 -5.620 -5.648 -5.679 -5.712 -5.746 -5.781 -5.818 -5.856 -5.895 -5.937 -5.982 -6.031 -6.083 -6.139 -6.198 -6.261 -6.327 -6.395 -6.467 -6.540 -6.617 -6.696 -6.777 -6.861 -6.948 -7.035 -7.124 -7.213 -7.301 -7.388 -7.472 -7.554 -7.636 -7.720 -7.808 -7.898 -7.988 -8.071 -8.138 -8.179 -8.187 -8.153 -8.068 -7.923 -7.713 -7.432 -7.081 -6.670 -6.222 -5.779 -5.418 -5.301 -5.716 -6.876 -8.553 -9.910 -9.948 -8.620 -7.214 -6.992 -7.816 -8.583 -8.603 -7.986 -7.297 -7.305 -8.583 -11.330 -15.732 -22.201 -31.295 -43.213 -56.416 -67.466 -74.028 -76.842 -78.046 -79.236 -80.402 -80.514 -80.166 -81.517 -84.164 -84.658 -82.031 -77.913 -73.271 -67.262 -58.433 -48.685 -38.978 -28.231 -21.188 -13.730 -10.437 -8.047 -6.370 -5.172 -4.311 -3.712 -3.333 -3.128 -3.040 -3.010 -3.002 -3.000 -3.001 -3.006 -3.017 -3.034 -3.051 -3.062 -3.062
-12.719 -12.719 -11.454 -9.562 -7.645 -5.993 -4.731 -3.915 -3.608 -3.919 -4.958 -6.801 -9.572 -13.524 -18.988 -25.964 -33.325 -38.381 -38.124 -32.216 -23.874 -16.532 -11.255 -7.662 -5.282 -3.896 -3.475 -4.014 -5.453 -7.295 -8.202 -7.295 -5.453 -3.991 -3.265 -3.034 -3.000 -3.000 -3.000 -3.000 -3.002 -3.017 -3.079 -3.256 -3.650 -4.372 -5.509 -7.133 -9.363 -12.395 -16.431 -21.360 -26.180 -29.264 -29.919 -29.020 -27.688 -26.345 -25.028 -23.732 -22.446 -21.161 -19.864 -18.546 -17.205 -15.854 -14.513 -13.209 -11.969 -10.809 -9.736 -8.749 -7.842 -7.011 -6.253 -5.572 -4.970 -4.451 -4.019 -3.675 -3.417 -3.239 -3.125 -3.058 -3.023 -3.007 -3.001 -3.000 -3.000 -3.001 -3.004 -3.010 -3.025 -3.049 -3.085 -3.130 -3.181 -3.237 -3.294 -3.352 -3.410 -3.468 -3.524 -3.580 -3.635 -3.690 -3.745 -3.800 -3.855 -3.910 -3.966 -4.022 -4.079 -4.136 -4.193 -4.249 -4.305 -4.360 -4.413 -4.465 -4.516 -4.565 -4.613 -4.660 -4.704 -4.747 -4.789 -4.828 -4.865 -4.901 -4.935 -4.968 -4.998 -5.027 -5.054 -5.080 -5.105 -5.128 -5.149 -5.170 -5.189 -5.207 -5.224 -5.239 -5.254 -5.267 -5.280 -5.292 -5.303 -5.313 -5.323 -5.332 -5.340 -5.347 -5.354 -5.360 -5.364 -5.367 -5.370 -5.372 -5.376 -5.383 -5.391 -5.400 -5.409 -5.418 -5.427 -5.436 -5.446 -5.457 -5.469 -5.482 -5.495 -5.510 -5.527 -5.545 -5.567 -5.591 -5.617 -5.646 -5.677 -5.710 -5.744 -5.780 -5.816 -5.854 -5.894 -5.936 -5.981 -6.030 -6.082 -6.138 -6.197 -6.260 -6.325 -6.393 -6.464 -6.536 -6.612 -6.690 -6.772 -6.857 -6.944 -7.033 -7.124 -7.216 -7.309 -7.403 -7.496 -7.590 -7.688 -7.790 -7.901 -8.019 -8.146 -8.277 -8.407 -8.528 -8.633 -8.713 -8.757 -8.752 -8.685 -8.544 -8.320 -8.006 -7.602 -7.127 -6.625 -6.204 -6.084 -6.546 -7.654 -8.857 -9.166 -8.256 -7.091 -6.937 -8.008 -9.293 -9.592 -8.584 -7.025 -6.116 -6.619 -8.637 -12.117 -17.281 -24.618 -34.611 -46.520 -57.543 -65.240 -69.827 -72.532 -73.965 -74.308 -73.767 -73.118 -73.136 -73.312 -72.508 -70.693 -68.189 -64.595 -58.467 -49.631 -40.233 -30.240 -20.456 -14.167 -10.086 -7.445 -5.706 -4.579 -3.866 -3.432 -3.185 -3.063 -3.015 -3.002 -3.000 -3.000 -3.000 -3.000 -3.000 -3.000 -3.000 -3.000 -3.000 -3.000
-8.742 -8.742 -7.927 -6.709 -5.481 -4.448 -3.735 -3.448 -3.696 -4.588 -6.208 -8.676 -12.221 -17.173 -23.704 -31.155 -37.564 -40.203 -37.228 -29.743 -21.316 -14.595 -9.926 -6.769 -4.722 -3.608 -3.377 -3.999 -5.455 -7.298 -8.205 -7.298 -5.455 -3.992 -3.265 -3.034 -3.000 -3.000 -3.000 -3.000 -3.000 -3.001 -3.009 -3.051 -3.188 -3.532 -4.205 -5.319 -7.009 -9.475 -13.001 -17.854 -23.573 -28.337 -30.449 -30.271 -29.238 -28.063 -26.824 -25.556 -24.301 -23.062 -21.834 -20.606 -19.366 -18.106 -16.827 -15.536 -14.257 -13.013 -11.829 -10.721 -9.696 -8.750 -7.878 -7.076 -6.341 -5.673 -5.076 -4.553 -4.112 -3.757 -3.484 -3.288 -3.156 -3.075 -3.031 -3.012 -3.003 -3.000 -3.000 -3.002 -3.006 -3.018 -3.039 -3.071 -3.115 -3.166 -3.221 -3.279 -3.338 -3.397 -3.455 -3.513 -3.570 -3.627 -3.684 -3.740 -3.797 -3.854 -3.911 -3.968 -4.025 -4.082 -4.138 -4.192 -4.246 -4.298 -4.349 -4.399 -4.448 -4.495 -4.541 -4.586 -4.630 -4.671 -4.711 -4.750 -4.787 -4.822 -4.855 -4.887 -4.918 -4.946 -4.974 -5.000 -5.025 -5.048 -5.070 -5.092 -5.112 -5.131 -5.149 -5.166 -5.182 -5.198 -5.212 -5.226 -5.240 -5.253 -5.265 -5.277 -5.287 -5.297 -5.307 -5.315 -5.322 -5.329 -5.334 -5.339 -5.346 -5.354 -5.364 -5.375 -5.386 -5.397 -5.407 -5.418 -5.429 -5.441 -5.453 -5.467 -5.481 -5.496 -5.514 -5.533 -5.556 -5.580 -5.607 -5.636 -5.668 -5.701 -5.735 -5.770 -5.806 -5.844 -5.884 -5.926 -5.972 -6.020 -6.072 -6.127 -6.185 -6.246 -6.310 -6.377 -6.446 -6.517 -6.591 -6.668 -6.748 -6.831 -6.917 -7.006 -7.096 -7.188 -7.282 -7.377 -7.473 -7.571 -7.675 -7.785 -7.904 -8.034 -8.175 -8.327 -8.486 -8.648 -8.809 -8.964 -9.105 -9.221 -9.301 -9.330 -9.293 -9.171 -8.951 -8.626 -8.200 -7.708 -7.258 -7.057 -7.312 -7.887 -8.170 -7.760 -7.146 -7.180 -8.050 -9.117 -9.453 -8.520 -6.784 -5.434 -5.363 -6.751 -9.463 -13.551 -19.393 -27.408 -37.046 -46.146 -53.214 -59.014 -64.078 -67.343 -68.216 -67.609 -66.785 -66.236 -65.719 -64.728 -63.287 -61.135 -57.198 -50.220 -41.037 -32.075 -22.934 -15.635 -10.267 -7.514 -5.505 -4.266 -3.580 -3.240 -3.087 -3.025 -3.005 -3.000 -3.000 -3.000 -3.000 -3.000 -3.000 -3.000 -3.000 -3.000 -3.000 -3.000 -3.000
-6.034 -6.034 -5.526 -4.787 -4.083 -3.556 -3.321 -3.519 -4.287 -5.731 -7.957 -11.162 -15.652 -21.689 -28.924 -35.924 -40.571 -40.692 -35.459 -27.020 -18.904 -12.863 -8.738 -5.978 -4.252 -3.398 -3.320 -3.993 -5.455 -7.298 -8.205 -7.298 -5.455 -3.992 -3.265 -3.034 -3.000 -3.000 -3.000 -3.000 -3.000 -3.000 -3.000 -3.005 -3.033 -3.147 -3.473 -4.201 -5.534 -7.659 -10.806 -15.305 -20.964 -26.132 -28.935 -29.562 -29.422 -29.041 -28.284 -27.211 -26.012 -24.797 -23.597 -22.412 -21.236 -20.059 -18.871 -17.664 -16.438 -15.203 -13.980 -12.791 -11.661 -10.602 -9.621 -8.715 -7.878 -7.105 -6.393 -5.741 -5.155 -4.638 -4.197 -3.833 -3.547 -3.334 -3.190 -3.099 -3.045 -3.017 -3.005 -3.001 -3.001 -3.004 -3.012 -3.030 -3.061 -3.103 -3.154 -3.210 -3.268 -3.328 -3.388 -3.447 -3.506 -3.565 -3.623 -3.682 -3.740 -3.798 -3.856 -3.913 -3.970 -4.025 -4.080 -4.133 -4.184 -4.235 -4.284 -4.332 -4.379 -4.426 -4.471 -4.514 -4.557 -4.597 -4.637 -4.674 -4.711 -4.745 -4.778 -4.810 -4.841 -4.870 -4.897 -4.923 -4.948 -4.972 -4.995 -5.017 -5.038 -5.058 -5.077 -5.095 -5.113 -5.130 -5.146 -5.161 -5.177 -5.192 -5.206 -5.220 -5.232 -5.245 -5.256 -5.267 -5.277 -5.286 -5.294 -5.302 -5.310 -5.321 -5.333 -5.345 -5.358 -5.370 -5.382 -5.394 -5.406 -5.419 -5.432 -5.446 -5.461 -5.477 -5.496 -5.516 -5.539 -5.564 -5.591 -5.620 -5.652 -5.684 -5.718 -5.753 -5.789 -5.826 -5.866 -5.909 -5.954 -6.001 -6.052 -6.106 -6.163 -6.223 -6.285 -6.349 -6.416 -6.485 -6.556 -6.631 -6.709 -6.790 -6.873 -6.959 -7.047 -7.136 -7.227 -7.321 -7.416 -7.513 -7.616 -7.726 -7.845 -7.976 -8.118 -8.272 -8.437 -8.610 -8.789 -8.971 -9.154 -9.334 -9.504 -9.657 -9.778 -9.853 -9.864 -9.791 -9.615 -9.325 -8.932 -8.499 -8.162 -7.999 -7.869 -7.620 -7.472 -7.673 -8.016 -8.281 -8.361 -7.804 -6.473 -5.158 -4.760 -5.588 -7.597 -10.806 -15.450 -21.809 -29.207 -35.726 -40.840 -46.533 -53.507 -59.349 -61.999 -62.265 -61.853 -61.373 -60.672 -59.480 -57.533 -54.191 -48.644 -40.920 -32.681 -24.509 -17.351 -11.893 -8.058 -5.769 -4.305 -3.501 -3.153 -3.038 -3.008 -3.001 -3.000 -3.000 -3.000 -3.000 -3.000 -3.000 -3.000 -3.000 -3.000 -3.000 -3.000 -3.000 -3.000
-4.299 -4.299 -4.026 -3.651 -3.343 -3.204 -3.368 -4.015 -5.294 -7.320 -10.263 -14.393 -19.996 -26.949 -34.063 -39.563 -42.026 -39.975 -33.117 -24.247 -16.673 -11.319 -7.689 -5.293 -3.867 -3.246 -3.289 -3.992 -5.455 -7.298 -8.205 -7.298 -5.455 -3.992 -3.265 -3.034 -3.000 -3.000 -3.000 -3.000 -3.000 -3.000 -3.000 -3.000 -3.003 -3.028 -3.182 -3.711 -4.892 -6.895 -9.885 -14.030 -18.862 -22.837 -24.861 -25.792 -26.886 -28.056 -28.628 -28.380 -27.530 -26.409 -25.231 -24.064 -22.916 -21.780 -20.651 -19.520 -18.377 -17.218 -16.041 -14.857 -13.685 -12.549 -11.468 -10.456 -9.518 -8.650 -7.846 -7.102 -6.413 -5.782 -5.212 -4.706 -4.267 -3.901 -3.609 -3.387 -3.228 -3.122 -3.058 -3.024 -3.009 -3.003 -3.003 -3.009 -3.025 -3.054 -3.095 -3.145 -3.201 -3.260 -3.320 -3.381 -3.442 -3.503 -3.563 -3.623 -3.682 -3.741 -3.798 -3.855 -3.911 -3.966 -4.019 -4.071 -4.121 -4.170 -4.218 -4.266 -4.312 -4.357 -4.401 -4.444 -4.486 -4.526 -4.564 -4.602 -4.637 -4.672 -4.705 -4.737 -4.767 -4.796 -4.824 -4.851 -4.876 -4.901 -4.924 -4.947 -4.969 -4.989 -5.009 -5.028 -5.047 -5.064 -5.082 -5.099 -5.115 -5.132 -5.147 -5.162 -5.177 -5.191 -5.205 -5.218 -5.230 -5.241 -5.251 -5.261 -5.271 -5.283 -5.297 -5.311 -5.325 -5.339 -5.353 -5.366 -5.380 -5.393 -5.407 -5.422 -5.437 -5.454 -5.473 -5.494 -5.517 -5.542 -5.570 -5.599 -5.630 -5.662 -5.696 -5.730 -5.766 -5.803 -5.843 -5.885 -5.929 -5.976 -6.025 -6.078 -6.133 -6.190 -6.250 -6.312 -6.376 -6.443 -6.511 -6.583 -6.658 -6.736 -6.816 -6.897 -6.981 -7.067 -7.154 -7.243 -7.334 -7.427 -7.526 -7.631 -7.745 -7.868 -8.004 -8.150 -8.307 -8.473 -8.646 -8.825 -9.010 -9.201 -9.395 -9.592 -9.788 -9.976 -10.147 -10.286 -10.375 -10.391 -10.306 -10.096 -9.771 -9.370 -8.928 -8.532 -8.347 -8.266 -7.929 -7.495 -7.403 -7.256 -6.464 -5.449 -4.963 -5.288 -6.552 -8.932 -12.582 -17.642 -23.392 -27.915 -31.063 -35.736 -43.328 -50.958 -55.507 -57.125 -57.440 -57.014 -55.607 -53.171 -49.667 -44.740 -38.335 -31.418 -24.623 -17.796 -12.979 -8.794 -6.218 -4.572 -3.606 -3.164 -3.027 -3.002 -3.000 -3.000 -3.000 -3.000 -3.000 -3.000 -3.000 -3.000 -3.000 -3.000 -3.000 -3.000 -3.000 -3.000 -3.000
-3.381 -3.381 -3.279 -3.152 -3.098 -3.242 -3.772 -4.881 -6.705 -9.403 -13.224 -18.467 -25.150 -32.367 -38.330 -41.751 -42.017 -38.080 -30.227 -21.523 -14.664 -9.950 -6.773 -4.720 -3.573 -3.145 -3.273 -3.992 -5.455 -7.298 -8.205 -7.298 -5.455 -3.992 -3.265 -3.034 -3.000 -3.000 -3.000 -3.000 -3.000 -3.000 -3.000 -3.000 -3.000 -3.016 -3.166 -3.726 -4.984 -7.092 -10.137 -13.886 -17.272 -19.035 -19.392 -19.985 -21.812 -24.413 -26.811 -28.252 -28.487 -27.825 -26.762 -25.613 -24.475 -23.357 -22.254 -21.162 -20.076 -18.986 -17.886 -16.769 -15.637 -14.500 -13.376 -12.288 -11.254 -10.287 -9.390 -8.558 -7.786 -7.070 -6.408 -5.801 -5.249 -4.757 -4.327 -3.963 -3.666 -3.434 -3.263 -3.148 -3.077 -3.035 -3.014 -3.006 -3.008 -3.022 -3.048 -3.087 -3.137 -3.194 -3.254 -3.315 -3.377 -3.439 -3.501 -3.562 -3.621 -3.680 -3.738 -3.794 -3.849 -3.903 -3.955 -4.007 -4.057 -4.105 -4.153 -4.199 -4.245 -4.290 -4.333 -4.375 -4.417 -4.456 -4.495 -4.532 -4.567 -4.602 -4.635 -4.666 -4.697 -4.726 -4.754 -4.781 -4.807 -4.832 -4.856 -4.880 -4.902 -4.924 -4.944 -4.964 -4.984 -5.002 -5.021 -5.039 -5.056 -5.074 -5.090 -5.107 -5.123 -5.138 -5.153 -5.167 -5.181 -5.194 -5.206 -5.217 -5.230 -5.243 -5.258 -5.274 -5.289 -5.305 -5.320 -5.334 -5.349 -5.363 -5.378 -5.393 -5.409 -5.427 -5.446 -5.468 -5.491 -5.517 -5.544 -5.573 -5.604 -5.636 -5.669 -5.702 -5.738 -5.775 -5.814 -5.855 -5.899 -5.944 -5.992 -6.043 -6.096 -6.151 -6.209 -6.268 -6.329 -6.393 -6.458 -6.527 -6.598 -6.672 -6.747 -6.825 -6.903 -6.984 -7.066 -7.149 -7.234 -7.321 -7.413 -7.511 -7.616 -7.729 -7.852 -7.985 -8.127 -8.276 -8.432 -8.593 -8.759 -8.932 -9.111 -9.299 -9.496 -9.704 -9.921 -10.146 -10.374 -10.595 -10.785 -10.916 -10.954 -10.852 -10.590 -10.220 -9.770 -9.112 -8.219 -7.548 -7.511 -7.594 -7.117 -6.419 -6.052 -6.043 -6.551 -7.990 -10.623 -14.609 -19.343 -22.963 -25.119 -28.596 -35.164 -42.629 -48.071 -50.840 -51.651 -50.811 -48.266 -44.314 -39.425 -33.982 -28.214 -22.826 -17.609 -12.352 -9.245 -6.580 -4.861 -3.786 -3.244 -3.054 -3.015 -3.009 -3.004 -3.001 -3.000 -3.000 -3.000 -3.000 -3.000 -3.000 -3.000 -3.000 -3.000 -3.000 -3.000 -3.000 -3.000
